# .PCD v0.7 - Point Cloud Data file format
VERSION 0.7
FIELDS x y z rgb
SIZE 4 4 4 4
TYPE F F F F
COUNT 1 1 1 1
WIDTH 1068
HEIGHT 1
VIEWPOINT 0 0 0 1 0 0 0
POINTS 1068
DATA ascii
4.7223411 -1.6067021 1.0137314 1.962975e-38
4.7841082 -1.6108558 1.0178747 1.9353884e-38
4.8552542 -1.6154525 1.0321088 1.9354243e-38
4.7129202 -1.5747989 1.0316712 1.9445362e-38
4.7210779 -1.5854697 1.0034747 1.9445716e-38
4.7817554 -1.5748484 1.0149165 1.9169851e-38
4.8563967 -1.5898092 1.0319545 1.9353521e-38
4.7322855 -1.6150668 0.96859604 1.8523763e-38
4.720747 -1.5313389 1.0383614 1.9261687e-38
4.7842865 -1.5394322 1.0183941 1.9169132e-38
4.7193222 -1.5225668 0.97308201 1.8616319e-38
4.7222276 -1.4976693 1.0268401 1.9077656e-38
4.7861547 -1.5090299 1.0256802 1.9077297e-38
4.5925617 -1.4411596 1.028917 1.9261688e-38
4.6625905 -1.4544731 1.0162816 1.8985101e-38
4.7239604 -1.4697653 1.0003712 1.8984741e-38
4.7225208 -1.4627519 1.0162432 1.9076937e-38
4.7856531 -1.4745713 1.0243982 1.8984743e-38
4.5946546 -1.4143521 1.0221082 1.9168772e-38
4.6602411 -1.418533 1.0120097 1.8984381e-38
4.7357244 -1.4793926 0.94327623 1.8247538e-38
4.722342 -1.4183881 1.0187409 1.8984741e-38
4.594933 -1.3749832 1.0171328 1.8984382e-38
4.6012816 -1.3710161 1.0106825 1.9076218e-38
4.6573472 -1.3868911 1.0102074 1.8892546e-38
4.722446 -1.373744 1.0033208 1.8892547e-38
4.5950565 -1.3446586 1.0182236 1.8892546e-38
4.6018505 -1.3442175 1.0186424 1.8892546e-38
4.6595597 -1.3605956 0.99829382 1.8708513e-38
4.7178626 -1.3491802 1.0039933 1.8801069e-38
4.7213144 -1.3511539 1.0026507 1.8801067e-38
4.5348988 -1.303267 1.014744 1.8892897e-38
4.5949192 -1.3029976 1.0146494 1.880071e-38
4.6014352 -1.3013279 1.0193485 1.8892904e-38
4.6536465 -1.2856553 1.0043352 1.8800709e-38
4.7168574 -1.3009572 1.0216599 1.8801067e-38
4.5336113 -1.2518374 1.0292685 1.8985461e-38
4.5898271 -1.2491153 1.0140305 1.880071e-38
4.6010656 -1.2563952 1.0209466 1.8892904e-38
4.6544309 -1.2646335 1.0170909 1.8801069e-38
4.5336022 -1.2191193 1.0203372 1.8984741e-38
4.5751915 -1.205982 1.0014405 1.880035e-38
4.6013794 -1.2315124 1.0178441 1.8892903e-38
4.4731088 -1.1857566 1.0015677 1.9168407e-38
4.5313115 -1.1788034 1.0127312 1.8892907e-38
4.5708132 -1.1782941 1.0050206 1.8708517e-38
4.5330763 -1.1399617 1.0152557 1.8985101e-38
4.5882564 -1.1421373 1.023134 1.9076578e-38
4.4768171 -1.1008813 1.0186912 1.9169135e-38
4.5338702 -1.1054503 1.0138935 1.9076938e-38
4.4439659 -1.0776045 0.87725633 1.7510337e-38
4.5326662 -1.0689591 1.0235225 1.9169132e-38
4.4183559 -1.0041953 1.0080807 1.9261328e-38
4.4714298 -1.022104 1.0125297 1.9261328e-38
4.4811635 -1.0286753 1.018554 1.9261688e-38
4.5116005 -1.0249752 0.89497197 1.7971311e-38
4.4176998 -0.98018497 1.0138491 1.9445719e-38
4.4711347 -0.97362626 1.0068574 1.9353884e-38
4.4808025 -0.97292376 1.0147365 1.9445722e-38
4.5322943 -0.98709917 1.0152671 1.9353884e-38
4.4160318 -0.94569367 1.0101298 1.9446079e-38
4.4715738 -0.93636215 1.0114657 1.9353885e-38
4.4810681 -0.94019824 1.017225 1.9537556e-38
4.5327344 -0.94054532 1.0210686 1.9354243e-38
4.396781 -0.87314367 1.0011988 1.9353525e-38
4.4723845 -0.90334046 1.0126574 1.9353884e-38
4.4812403 -0.91050714 1.0153178 1.9445722e-38
4.5322499 -0.90676522 1.0329655 1.9446078e-38
4.3583603 -0.84327835 1.0091671 1.9446442e-38
4.3628874 -0.84367275 1.0090483 1.9446798e-38
4.4098487 -0.85365665 1.0086231 1.9446081e-38
4.472404 -0.87251002 1.0267439 1.9446438e-38
4.4812217 -0.87994599 1.0186415 1.9537915e-38
4.3363657 -0.79776144 0.98846781 1.9446081e-38
4.3620663 -0.81614864 1.0141879 1.9538635e-38
4.4155712 -0.8294307 1.018082 1.9538276e-38
4.4665332 -0.81333208 1.0370104 1.9539716e-38
4.3035116 -0.78488368 1.0288819 1.9814862e-38
4.3573985 -0.79410857 1.0207592 1.9722308e-38
4.3619676 -0.79439962 1.0190136 1.9722308e-38
3.3166363 -0.60773313 1.0172179 2.0275483e-38
3.3479095 -0.61455542 1.0219185 2.0183647e-38
3.315361 -0.56870741 1.0034554 2.0183646e-38
3.3437417 -0.57961673 1.0208528 2.0275483e-38
3.3774266 -0.56629014 1.0321664 2.0183289e-38
3.3132286 -0.54038107 1.0039904 2.0183286e-38
3.346019 -0.53902936 1.0145094 2.0184006e-38
3.3832016 -0.53092366 1.0126902 1.8435904e-38
3.4140964 -0.53617471 1.0287472 1.9449328e-38
3.3509223 -0.5065105 1.0083388 1.4658431e-38
3.3843176 -0.50644284 1.0080163 6.7300105e-39
3.4185565 -0.50773203 1.0066707 6.5452479e-39
3.4477541 -0.49343765 1.0191342 7.1902474e-39
3.4838135 -0.48189852 1.0386651 7.3746373e-39
3.3495989 -0.47892588 1.0188224 8.0196493e-39
3.3793266 -0.47088408 1.0099792 7.5583096e-39
3.4253507 -0.48766711 0.99779195 7.1902446e-39
3.4498532 -0.46881995 1.0080261 6.8221837e-39
3.4843144 -0.45637017 1.0390549 6.7296252e-39
4.1470237 -0.44762278 1.0140365 5.8940926e-39
4.1955466 -0.46651062 1.0081893 5.0693766e-39
4.2013793 -0.46502757 1.0308855 4.8860671e-39
4.2486801 -0.47049078 1.0320973 4.149951e-39
3.3779123 -0.41812128 1.0078731 5.7147502e-39
3.4206789 -0.44206569 1.0030974 5.531082e-39
3.4463518 -0.43652025 1.0129555 5.4392479e-39
3.4824259 -0.43771404 1.0392945 5.8062381e-39
4.1442714 -0.42033556 1.0055736 1.2323609e-38
4.1968575 -0.41845998 1.0288649 1.3425974e-38
4.2013335 -0.4180204 1.0338291 1.3885141e-38
4.1478724 -0.38521028 1.0095286 1.4892808e-38
4.1968212 -0.38048884 1.0091484 1.4801694e-38
4.2009802 -0.38060406 1.0097998 1.4802054e-38
4.2471323 -0.39021993 1.0014076 1.1121461e-38
4.1477237 -0.34122002 1.0140431 1.9349544e-38
4.1967525 -0.3546997 1.0052845 1.8421799e-38
4.0953369 -0.28507328 1.0269696 1.9631548e-38
4.1468019 -0.30561337 1.0090671 1.9631191e-38
4.1986666 -0.30687451 1.0235813 1.9631551e-38
4.0986171 -0.26356581 1.0144409 1.9539354e-38
4.1479015 -0.2665928 1.0197334 1.963155e-38
4.0395889 -0.21283995 1.0127212 1.9354966e-38
4.1019454 -0.23291983 1.0112715 1.9446801e-38
4.1454382 -0.23966956 1.0159742 1.9539358e-38
4.0502348 -0.18607646 1.01684 1.94468e-38
4.1026583 -0.18927687 1.0076015 1.9354604e-38
3.9538026 -0.12999165 1.036839 1.9723387e-38
3.9986627 -0.13023873 1.0333724 1.9631551e-38
4.0153108 -0.15991844 1.0170771 1.9539355e-38
4.0506659 -0.14468123 1.0146973 1.9539354e-38
4.0971136 -0.14329942 1.0160537 1.9538997e-38
3.9150267 -0.095261291 1.017825 2.0000334e-38
3.9557838 -0.10218321 1.013575 1.9907778e-38
3.9787569 -0.10445262 1.0190084 1.9907778e-38
4.0074239 -0.12997013 1.0076143 1.9723387e-38
4.0499825 -0.11515138 1.0094088 1.9815582e-38
3.9146299 -0.065412633 1.0173972 2.0276922e-38
3.9548955 -0.056611601 1.0187323 2.0276922e-38
3.9982219 -0.069445163 1.003913 2.0092891e-38
4.0016546 -0.060431324 1.0030376 2.0184725e-38
3.8663783 -0.0082422569 1.0123092 2.0185086e-38
3.9155073 -0.033418149 1.0135783 2.0184728e-38
3.9565096 -0.017174035 1.0143039 2.0184726e-38
3.8645201 0.03126429 1.0191432 1.9816302e-38
3.9141622 0.0086274538 1.0142515 1.9816302e-38
3.9567823 0.0046176664 1.0225694 2.0000335e-38
3.868207 0.063870527 1.013037 1.9631552e-38
3.913341 0.043834899 1.0224229 1.9723748e-38
3.8263223 0.1162293 1.0237464 1.9723387e-38
3.8696995 0.090828247 1.0099758 1.9539355e-38
3.9056013 0.10775849 1.0256493 1.9723744e-38
3.8249385 0.14261273 1.0093423 1.9724107e-38
3.8688607 0.1265915 1.0118308 1.9631552e-38
3.7805579 0.18765782 1.0175699 2.0092171e-38
3.8247547 0.17183715 1.0058833 1.9908138e-38
3.8669608 0.16982403 1.0281385 1.9908138e-38
3.7843642 0.21996994 1.0082529 2.0000335e-38
3.8250437 0.21099056 1.010813 2.0000335e-38
3.8669538 0.22336183 1.0261351 2.0184006e-38
3.7381482 0.2678681 1.0193356 2.0276563e-38
3.7848954 0.25066507 1.0133761 2.0184368e-38
3.8229451 0.26068586 1.0159012 2.0092531e-38
3.7424223 0.29885113 1.0098801 2.0184365e-38
3.7863736 0.28354821 1.0086204 2.0092531e-38
3.6702023 0.38228577 -0.50337219 1.0505627e-38
3.6999424 0.35264802 1.0252247 2.0368757e-38
3.7410886 0.33512306 1.0126244 2.0184366e-38
3.6998415 0.37533346 1.0052375 2.0092171e-38
3.737896 0.37762028 1.0171888 2.0184366e-38
3.699172 0.41458631 1.0117447 2.0184366e-38
3.7368884 0.40899673 1.012448 2.0276203e-38
3.6556146 0.4708901 1.0289553 2.0368757e-38
3.6982644 0.45808914 1.0140278 2.0276203e-38
3.7369869 0.46806368 1.0379046 2.0276565e-38
3.6971221 0.49555185 1.0090518 2.0276203e-38
3.7377532 0.4969441 1.0380317 2.0368397e-38
3.5823593 0.55419564 1.0337855 2.0276562e-38
3.6191523 0.55454856 1.0192813 2.0368397e-38
3.6575174 0.54521251 1.0099963 2.0368397e-38
3.7007906 0.52518857 1.0058924 2.0276203e-38
3.5829957 0.58122736 1.0274749 2.0368397e-38
3.6206379 0.5693391 1.0080991 2.0276203e-38
3.6505151 0.58925444 0.99729425 2.0184366e-38
3.6955142 0.56121582 1.0178845 2.0368397e-38
3.549109 0.61966813 1.0235001 2.0368039e-38
3.5825608 0.61962867 1.0158539 2.0368399e-38
3.6191797 0.61017686 1.0056947 2.0276562e-38
3.6564026 0.61544102 1.0202764 2.0368397e-38
3.5462401 0.65035707 1.030825 2.0368039e-38
3.5823531 0.65996826 1.0121973 2.0276202e-38
3.6193242 0.65428185 1.0064237 2.0368399e-38
3.5457857 0.69369656 1.0176086 2.0275842e-38
3.5824993 0.69682139 1.0065899 2.0183647e-38
3.512785 0.72164482 0.99782825 2.0091449e-38
3.5455418 0.73052186 1.0174674 2.0183647e-38
3.5820425 0.73593813 1.0076427 2.0091812e-38
3.4373207 0.79616249 1.0195721 2.009145e-38
3.4723568 0.79825246 1.0162854 2.0183644e-38
3.5093641 0.76894999 1.0043415 2.009145e-38
3.5440257 0.77186596 1.0247523 2.0183646e-38
3.5866606 0.7602703 1.0074129 2.018401e-38
3.4364319 0.81978458 1.0180973 2.009145e-38
3.4657383 0.82005137 1.0146279 2.009145e-38
3.5023184 0.70377588 0.91876149 1.9446081e-38
3.5434906 0.78579283 1.0106175 1.9999255e-38
3.4357045 0.85812086 1.0251275 2.009145e-38
3.4707046 0.85392129 1.0057627 2.009109e-38
3.3990285 0.90376967 1.0203327 2.009109e-38
3.4326739 0.8992852 1.019997 2.009109e-38
3.4661791 0.88088232 0.99333185 1.9998534e-38
3.5046122 0.89858967 1.0150633 2.009073e-38
3.3950317 0.93959028 1.030651 2.009073e-38
3.4260445 0.93940449 1.0201615 2.009073e-38
3.454221 0.89710796 0.97229445 1.9722308e-38
3.483146 0.92161137 1.0021648 2.0091097e-38
3.3971705 0.9819777 1.0247191 2.009073e-38
3.4153602 0.9740569 1.0141612 1.9998536e-38
3.4558432 0.91678357 0.97165227 1.9722308e-38
3.305846 1.0157455 0.99610823 1.9998176e-38
3.3378811 1.0283051 1.0077236 2.0090731e-38
3.3725414 1.0165145 1.0144167 2.009037e-38
3.4039068 0.99903482 1.0115658 1.9998534e-38
3.440649 1.0044987 1.0283492 1.9998897e-38
3.2671714 1.0729392 1.0322201 2.0090011e-38
3.3050644 1.052124 1.0011896 2.0090371e-38
3.3363814 1.0529066 1.0106604 2.0090371e-38
3.36883 1.0497615 1.0228566 2.0090371e-38
3.4039674 1.0408165 1.0179507 2.0091089e-38
3.2727687 1.1008813 1.0279711 2.0090014e-38
3.3036621 1.0909142 1.0087527 2.0090013e-38
3.3375709 1.0825881 1.0190512 2.0090731e-38
3.3767669 1.0851117 1.0144105 2.0182208e-38
3.4053347 1.0920101 1.0095311 2.0090011e-38
3.178812 1.1576507 1.0040748 2.0273323e-38
3.2317326 1.1306652 0.99357837 1.9997457e-38
3.2698174 1.1412551 1.0184102 2.0089652e-38
3.3066008 1.1208298 0.99714428 1.9997815e-38
3.3328948 1.1287696 1.0278701 2.0181849e-38
3.1825545 1.1932105 1.0041487 2.0089652e-38
3.2144878 1.1768321 1.0075835 1.9997817e-38
3.2602105 1.1698928 1.018139 2.0089654e-38
3.3286402 0.99728578 0.81826192 1.9076221e-38
3.1525154 1.227475 1.0206939 1.9997458e-38
3.1813536 1.2317895 1.0206847 1.9997457e-38
3.2164371 1.2190768 1.0157039 1.9997458e-38
3.2472515 1.2194406 1.0233411 1.9997458e-38
3.1525314 1.2530495 1.0171806 1.9905623e-38
3.1854701 1.2324886 1.0033393 1.9905261e-38
3.2144549 1.2361994 1.0082499 1.9997097e-38
3.2638798 1.192747 0.97426778 1.9720871e-38
3.1486473 1.3146433 1.0194861 1.9813065e-38
3.1827593 1.2964476 1.0108449 1.9904901e-38
3.2094586 1.2926168 1.0188756 1.9905261e-38
3.2419875 1.3190869 1.0359665 1.9997098e-38
3.0375955 1.359184 1.0048666 1.9720158e-38
3.1501815 1.341091 1.0184114 1.9720511e-38
3.1726725 1.3012438 0.98251963 1.9628315e-38
3.2094932 1.3113868 1.0179821 1.9720511e-38
3.2380049 1.2021545 0.9494372 1.953648e-38
3.0363414 1.3782767 1.0183377 1.9720871e-38
3.0624502 1.3804047 1.0036391 1.9628674e-38
3.0974476 1.3908693 1.0213994 1.972087e-38
3.146445 1.3778863 1.0175816 1.9812707e-38
3.1585507 1.3052038 0.94132346 1.9443924e-38
3.0368831 1.4317993 1.0077723 1.9628314e-38
3.051816 1.4060808 0.97522348 1.9444283e-38
3.1002192 1.4220031 1.0181717 1.9720511e-38
3.1386328 1.4179574 1.0191114 1.9812705e-38
3.1840239 1.3889022 1.0088284 1.9812707e-38
3.2082963 1.4154761 1.0387245 1.9996741e-38
3.0346477 1.4547387 1.0117999 1.9628317e-38
3.0552464 1.4538909 1.0081966 1.953648e-38
3.0991347 1.4521275 1.0190835 1.9628315e-38
3.1333764 1.451654 1.0180751 1.9720511e-38
2.9518781 1.5110782 1.0269321 1.953648e-38
2.9734478 1.5166292 1.0252824 1.9444645e-38
3.0197086 1.4904276 1.0033367 1.9444643e-38
3.0552831 1.4944676 1.0136402 1.953648e-38
3.0933037 1.4941958 1.0093731 1.9628674e-38
2.9055743 1.5535008 1.033618 1.9536477e-38
2.9482038 1.532904 1.0023026 1.9352089e-38
2.9782434 1.5228301 1.002576 1.9352089e-38
3.0221448 1.5345732 1.0141567 1.9444284e-38
3.0491366 1.5430919 1.0169245 1.9444643e-38
2.8684199 1.5652906 1.0289983 1.9352446e-38
2.9058499 1.5742078 1.0223018 1.9444283e-38
2.9450107 1.5577897 1.0044247 1.9352087e-38
2.9753864 1.5754921 1.0181199 1.9352447e-38
3.0143144 1.5768675 1.0121889 1.9352446e-38
3.0596006 1.5636204 1.0104903 1.9444643e-38
3.0853205 1.5717436 1.0027115 1.9535764e-38
2.9464951 1.5973729 1.0078931 1.9352087e-38
2.9718356 1.6091263 1.0109504 1.9352087e-38
3.0132322 1.6059346 1.0142059 1.9352445e-38
4.9119892 -1.9673468 1.0468227 3.3140036e-39
4.9270687 -1.9652497 1.0549686 3.312919e-39
4.9945698 -1.9736344 1.061052 3.9575751e-39
4.8581829 -1.9245526 1.0532244 2.6707978e-39
4.8987455 -1.8867825 0.96934521 3.8660998e-39
4.9250107 -1.9337494 1.0542359 3.4969571e-39
4.9725289 -1.9212757 1.0248848 5.0642786e-39
4.7905226 -1.9136105 1.0523194 2.4896449e-39
4.8553367 -1.9021052 1.05625 2.8548275e-39
4.9191432 -1.8927162 1.0156221 3.6813512e-39
4.9247131 -1.9000436 1.0558685 3.405123e-39
4.9908333 -1.8968331 1.0576191 4.6944213e-39
4.7869897 -1.8768816 1.0525174 2.9466658e-39
4.8571553 -1.8693939 1.016564 3.1310515e-39
4.8693151 -1.8198935 1.0024115 3.6809925e-39
4.9245238 -1.8667337 1.0549024 3.7721077e-39
4.9947119 -1.865311 1.0637773 3.681354e-39
4.8544121 -1.9046019 0.96295351 3.4072754e-39
4.8648467 -1.7767745 0.98381817 2.210184e-39
4.9243112 -1.821395 1.0552938 1.8417616e-39
4.9943533 -1.8190732 1.0664803 1.2620688e-38
4.8980722 -1.8365593 0.95017499 6.0665672e-39
4.9169807 -1.7827702 1.055546 1.2253366e-38
4.923943 -1.7826101 1.0536898 1.2715777e-38
4.9954209 -1.7720734 1.0798441 1.7470717e-39
4.8551135 -1.7447696 1.0583419 7.284545e-39
4.9181495 -1.7393993 1.0357292 7.7339806e-39
4.9238796 -1.74185 1.0582833 6.7223692e-39
4.9926786 -1.7470129 1.0799625 2.0075892e-38
4.7881751 -1.7059788 1.0707 1.0131094e-39
4.8555193 -1.6976541 1.0540017 1.7597091e-38
4.9182878 -1.7036189 1.0660483 1.9998173e-38
4.9230108 -1.703822 1.0653646 1.9998887e-38
4.7867117 -1.6526192 1.0598967 1.9812321e-38
4.8531947 -1.65557 1.0590296 1.9537915e-38
4.7845831 -1.6146591 1.0541663 1.9445721e-38
4.853951 -1.6115723 1.0571357 1.9353882e-38
4.7148733 -1.5674013 1.0716455 1.9538994e-38
4.722712 -1.566903 1.0741065 1.9630469e-38
4.7827582 -1.5792996 1.0547889 1.9261688e-38
4.8531399 -1.5886177 1.0574443 1.9353164e-38
4.6483455 -1.5301597 1.051123 1.9538634e-38
4.715528 -1.5386281 1.066946 1.9537916e-38
4.7218261 -1.5339594 1.0675373 1.9537916e-38
4.7832661 -1.5422699 1.0568607 1.9261329e-38
4.6549973 -1.4959823 1.0516671 1.9446079e-38
4.7090936 -1.4948109 1.0458537 1.9261331e-38
4.7225308 -1.5042173 1.0654387 1.9445721e-38
4.7863765 -1.5113603 1.054042 1.9169491e-38
4.655376 -1.4458492 1.0543559 1.9445361e-38
4.6989121 -1.4422197 0.99943864 1.8708161e-38
4.7225833 -1.4775635 1.0666292 1.9445362e-38
4.7775631 -1.4438365 1.0721227 1.9168775e-38
4.595108 -1.4129182 1.0554208 1.9445721e-38
4.6015496 -1.4057876 1.0631554 1.9537558e-38
4.6532173 -1.4075818 1.0539812 1.9261329e-38
4.6842055 -1.4075813 0.98404694 1.843193e-38
4.7225051 -1.4200673 1.0646642 1.9076938e-38
4.5951867 -1.3793296 1.0601518 1.9446079e-38
4.6010647 -1.379853 1.0628982 1.9538281e-38
4.6544795 -1.3767045 1.0575875 1.9261329e-38
4.6430836 -1.3625866 0.88614112 1.7418141e-38
4.595221 -1.3446096 1.0584075 1.9353526e-38
4.6017303 -1.3439718 1.0567489 1.926169e-38
4.6467786 -1.3327374 1.0529888 1.9169132e-38
4.5938096 -1.2961339 1.0497313 1.9169494e-38
4.6014915 -1.2983336 1.0559775 1.9261687e-38
4.629817 -1.274254 1.0404506 1.9077297e-38
4.7153583 -1.2974906 1.0409397 1.8801432e-38
4.5341978 -1.2534298 1.0655482 1.9446079e-38
4.5902038 -1.2537556 1.042732 1.9077656e-38
4.6011238 -1.2613417 1.0508343 1.9077657e-38
4.5338345 -1.2226249 1.0576665 1.9353884e-38
4.5877919 -1.2102076 1.0352575 1.9076579e-38
4.6011844 -1.2210567 1.0493094 1.9077296e-38
4.4749246 -1.1856031 1.0694124 1.9630108e-38
4.5286484 -1.1701759 1.049306 1.9353884e-38
4.5944924 -1.1869293 1.0476571 1.9076938e-38
4.601573 -1.1907248 1.0456278 1.9076937e-38
4.5275717 -1.1289399 1.0489435 1.926205e-38
4.5892978 -1.1447971 1.0563778 1.9261329e-38
4.522893 -1.0909671 1.0473922 1.926205e-38
4.5911026 -1.1096824 1.0633919 1.9170209e-38
4.5304337 -1.0583984 1.0542699 1.9353885e-38
4.5894704 -1.0758731 1.0651213 1.9353526e-38
4.4736958 -1.0167364 1.0557294 1.9538276e-38
4.4809909 -1.0161188 1.0523903 1.9630113e-38
4.5208459 -1.0058328 1.0493655 1.9446081e-38
4.41294 -0.97093111 1.0731373 1.963155e-38
4.4681797 -0.97968626 1.0503494 1.9538276e-38
4.4807901 -0.98934108 1.052691 1.9538276e-38
4.5318956 -0.97661829 1.0672621 1.9538275e-38
4.3582797 -0.94319677 1.0753299 1.9723385e-38
4.3634067 -0.9433248 1.0752319 1.9631191e-38
4.4144001 -0.92486358 1.0728675 1.9723388e-38
4.4724436 -0.94288397 1.0501046 1.9446441e-38
4.4811373 -0.94230074 1.0526556 1.9446442e-38
4.531486 -0.93822122 1.0626842 1.944644e-38
4.4053359 -0.87563908 1.0460372 1.9630831e-38
4.4742846 -0.90071124 1.0604055 1.9538635e-38
4.4813032 -0.90550423 1.0609772 1.9446798e-38
4.3567882 -0.84488642 1.07197 1.9723385e-38
4.3619423 -0.84462965 1.0724351 1.9815221e-38
4.413815 -0.85459715 1.0523798 1.963119e-38
4.4727459 -0.86355591 1.05935 1.9538995e-38
4.3051338 -0.80203879 1.0783826 1.990634e-38
4.3524466 -0.81828886 1.0645276 1.9722668e-38
4.3617492 -0.8191613 1.0710905 1.9814863e-38
4.4140272 -0.82189298 1.0542973 1.9722668e-38
4.4721475 -0.82036579 1.0627832 1.9722668e-38
4.3052588 -0.77454954 1.0662429 1.9907059e-38
4.3499918 -0.78833604 1.0464628 1.9630472e-38
4.3618021 -0.79078454 1.0662066 1.9814863e-38
4.4167442 -0.78697121 1.0733701 1.9815222e-38
3.3174574 -0.64086717 1.0747002 2.0275483e-38
3.346509 -0.64357591 1.0740098 2.0367677e-38
3.3748202 -0.64002961 1.0693091 2.0459878e-38
3.3168993 -0.6122483 1.0657417 2.0367677e-38
3.3485689 -0.62079912 1.0534962 2.0275483e-38
3.3793163 -0.63456511 1.0653217 2.0275842e-38
3.3198993 -0.58338761 1.0394715 2.0183646e-38
3.3468132 -0.58368814 1.0581583 2.0367678e-38
3.3201599 -0.55499256 1.0349613 2.0183286e-38
3.3475065 -0.53852874 1.0558022 2.0276203e-38
3.3804197 -0.52661496 1.0535176 1.7975291e-38
3.41401 -0.53766352 1.0437797 2.0093612e-38
3.4497755 -0.54370266 1.0413618 2.0278002e-38
3.3123205 -0.51550341 1.0549353 1.9172383e-38
3.349829 -0.52122724 1.0300907 1.5025772e-38
3.3804393 -0.50244153 1.0569346 7.4647071e-39
3.4141703 -0.49951118 1.0554061 7.649799e-39
3.4476571 -0.48898646 1.0384908 8.0189291e-39
3.4841726 -0.48827559 1.0557581 7.8352567e-39
3.5207119 -0.48371759 1.0635356 7.8348965e-39
3.3152924 -0.45060372 1.0505761 9.8621172e-39
3.3475571 -0.47455221 1.0667632 1.0322374e-38
3.3648093 -0.4912186 0.93746376 9.76956e-39
3.4150846 -0.46868426 1.0635443 9.0327181e-39
3.4507804 -0.45493647 1.0412022 7.6512227e-39
3.4854283 -0.45485705 1.0591941 6.9140192e-39
4.1472034 -0.44764632 1.0544498 6.2603583e-39
4.2036171 -0.47281131 1.0444474 5.8944541e-39
4.2014403 -0.46206406 1.0602759 5.620028e-39
4.2486076 -0.46981454 1.0597116 5.1619323e-39
3.3152001 -0.43803442 1.0506185 9.1249123e-39
3.4137871 -0.43707207 1.0441829 5.0711982e-39
3.4488382 -0.43479574 1.042541 5.5303687e-39
4.1491427 -0.43010104 1.0586236 1.2507638e-38
4.1982775 -0.4209016 1.0497276 1.3792951e-38
4.2013607 -0.41687179 1.0610702 1.3884785e-38
4.247622 -0.42247921 1.0641171 1.3975895e-38
4.1472449 -0.37313735 1.0462627 1.5164357e-38
4.1948414 -0.37579045 1.0557253 1.4983209e-38
4.2013688 -0.38034371 1.0639014 1.5075403e-38
4.0967531 -0.32939115 1.0634415 2.0550605e-38
4.1498365 -0.34140685 1.0525243 1.9255549e-38
4.1977282 -0.3544175 1.0604409 1.8508964e-38
4.2010307 -0.35431799 1.0627642 1.8417127e-38
4.099576 -0.30162853 1.0569838 1.9723747e-38
4.1486959 -0.30162868 1.0478382 1.9631551e-38
4.0755773 -0.30085546 1.040044 1.9538998e-38
4.0984206 -0.25960276 1.0540211 1.9631551e-38
4.1470742 -0.27329779 1.0485049 1.963155e-38
4.0683951 -0.26724467 1.0355213 1.9538997e-38
4.0971427 -0.22300425 1.0513245 1.9538997e-38
3.9988523 -0.16096374 1.0492136 1.9538997e-38
4.0023341 -0.16073675 1.0490311 1.944716e-38
4.0492024 -0.16553156 1.0553606 1.944716e-38
4.0963874 -0.18366015 1.0487303 1.94468e-38
3.9986832 -0.1332057 1.058103 1.9723387e-38
4.0052648 -0.13510165 1.040411 1.9631191e-38
4.0562248 -0.15690345 1.0467558 1.944716e-38
4.0981274 -0.14857557 1.0500116 1.9539354e-38
3.9103901 -0.08713378 1.0537946 2.0092169e-38
3.9580884 -0.10709929 1.0518712 1.9908137e-38
3.9882662 -0.11070766 1.0638741 1.9907778e-38
4.0055776 -0.11866897 1.0502306 1.9815581e-38
3.8684978 -0.040935986 1.0428138 2.0461315e-38
3.9099662 -0.056653101 1.055485 2.0276922e-38
3.9542656 -0.057037398 1.0546789 2.0277281e-38
3.8666177 -0.018903721 1.0501348 2.0277281e-38
3.9090204 -0.022150271 1.0504664 2.0185086e-38
3.9512737 -0.025093965 1.0523303 2.0277282e-38
3.8671219 0.019423196 1.0695794 1.9999976e-38
3.9113405 0.017500179 1.0510594 1.9908139e-38
3.8667698 0.059666991 1.0565679 1.9631552e-38
3.9114921 0.056970999 1.0529239 1.9723388e-38
3.8239887 0.11534543 1.0637617 1.9723028e-38
3.8677454 0.093570873 1.0455149 1.9539355e-38
3.9101231 0.087934867 1.0553213 1.9631551e-38
3.7825584 0.15550634 1.0750058 1.9815223e-38
3.8317411 0.12276315 1.0502779 1.9723028e-38
3.8661604 0.13298245 1.0421365 1.9723387e-38
3.794698 0.13304327 1.0216317 1.9723388e-38
3.8250077 0.16975524 1.0559404 1.9999973e-38
3.8651383 0.17431392 1.0440894 1.9908138e-38
3.7374561 0.23980552 1.0512569 2.0184726e-38
3.7792501 0.2043134 1.0328661 1.9999976e-38
3.8225861 0.21810357 1.0543424 2.0092531e-38
3.6998327 0.33932331 0.96869266 1.9723388e-38
3.7796385 0.25656873 1.0528066 2.0184366e-38
3.8235931 0.25574681 1.0524484 2.0184726e-38
3.7278929 0.32067993 1.0260259 1.9999975e-38
3.7804804 0.29850581 1.0595069 2.0184725e-38
3.8228436 0.30548573 1.0641341 2.027656e-38
3.7370269 0.34545022 1.0489444 2.0092172e-38
3.7805991 0.3320277 1.0614302 2.0184366e-38
3.6981845 0.37711719 1.0434117 2.0092172e-38
3.7381675 0.37848806 1.0627731 2.0184366e-38
3.6974175 0.416426 1.0469642 2.0276202e-38
3.7362242 0.41145617 1.0562413 2.0184006e-38
3.6587114 0.44368476 1.0564165 2.0277279e-38
3.6977222 0.45966735 1.0519853 2.0276563e-38
3.738687 0.45570043 1.061699 2.0276563e-38
3.621279 0.50798786 1.0712099 2.0460593e-38
3.66606 0.4913305 1.0557543 2.0276562e-38
3.6999032 0.49954662 1.0485785 2.0276562e-38
3.7374578 0.4888888 1.0541582 2.0368399e-38
3.584379 0.54428375 1.0513468 2.0276562e-38
3.6240921 0.52670497 1.0480206 2.0276562e-38
3.6619656 0.53051078 1.0446231 2.0368397e-38
3.6999319 0.52658063 1.0430753 2.0368399e-38
3.5835533 0.57399029 1.049614 2.0368397e-38
3.6253211 0.5645175 1.0447329 2.0276202e-38
3.666007 0.51093709 0.92855507 1.9631194e-38
3.5467486 0.62290692 1.0507978 2.0368039e-38
3.5838032 0.61398715 1.0543993 2.0368039e-38
3.622719 0.58932519 1.0580232 2.0368397e-38
3.5849321 0.6497767 1.0539165 2.0276202e-38
3.5092115 0.71530324 1.0765432 2.0275484e-38
3.5501802 0.6898194 1.0530204 2.0275484e-38
3.5841203 0.68396759 1.0532019 2.0275842e-38
3.507503 0.74170846 1.0562882 2.0183647e-38
3.5477753 0.72499359 1.0554869 2.0183646e-38
3.6357853 0.63708746 1.0051502 1.9998896e-38
3.4728632 0.79825795 1.043075 2.0183646e-38
3.5076828 0.78302246 1.0428889 2.0183646e-38
3.5415263 0.77859586 1.0602447 2.0091452e-38
3.4341578 0.83539999 1.0457853 2.0182928e-38
3.4717886 0.8264519 1.0541236 2.0183286e-38
3.5128686 0.80452442 1.0450413 2.009109e-38
3.5420144 0.80956751 1.054587 2.0091092e-38
3.4354906 0.86095506 1.0458668 2.0182927e-38
3.470511 0.8619557 1.0582402 2.0182927e-38
3.5097914 0.80837482 0.84638184 1.9076938e-38
3.5306211 0.85431093 1.0142167 1.9814505e-38
3.3991375 0.90032572 1.0742655 2.0274398e-38
3.4348977 0.90217102 1.0568966 2.009109e-38
3.4526687 0.88228476 1.0310367 1.9998534e-38
3.5749748 0.67818147 0.66274905 1.7970591e-38
3.3330629 0.95422971 1.0510862 2.009037e-38
3.3973279 0.94518209 1.0609152 2.0090731e-38
3.4214573 0.93518847 1.0585295 2.009073e-38
3.4330001 0.90075243 1.0003266 1.9814503e-38
3.3452842 0.96962011 1.0573683 1.9998534e-38
3.3848593 0.97250313 1.0524164 1.9998534e-38
3.4033446 0.96754396 1.0493039 1.9998534e-38
3.4425654 0.96845531 1.0560579 2.0090733e-38
3.306891 1.0012666 1.0416729 1.9998176e-38
3.3359666 1.0305417 1.0556202 2.0182207e-38
3.3818846 1.017765 1.0579827 2.0182564e-38
3.4059782 1.0068023 1.0509896 2.009037e-38
3.2383339 1.0708348 1.0596807 2.0273691e-38
3.2541003 1.0728689 1.0570899 2.0090371e-38
3.3075459 1.0399089 1.0482171 2.0090371e-38
3.3380916 1.0491683 1.0432858 2.009037e-38
3.3714745 1.0463316 1.0648541 2.0090371e-38
3.4082692 0.99711031 1.020952 1.9905977e-38
3.2382987 1.0832736 1.0601377 2.0181848e-38
3.2743232 1.0923443 1.0564361 2.0090013e-38
3.3080881 1.0647682 1.0366415 1.9997817e-38
3.337702 1.0821736 1.055756 2.009073e-38
3.2718565 1.1412551 1.05769 2.0090011e-38
3.3104947 1.0991668 1.0335982 1.9997458e-38
3.1558874 1.1995693 1.0658681 2.0090371e-38
3.2242184 1.1905851 1.0593058 2.0090013e-38
3.2666829 1.1779389 1.0540423 2.0090013e-38
3.3375399 1.0592018 1.0077823 1.972159e-38
3.1524861 1.2259654 1.0503218 2.0089652e-38
3.1814764 1.2288088 1.0473908 1.9997458e-38
3.220547 1.2154074 1.0571496 2.0089654e-38
3.2568347 1.1961869 1.0477929 1.9997817e-38
3.2901752 1.2057662 1.065999 2.0090015e-38
3.1515276 1.2664175 1.060262 2.0089294e-38
3.1805432 1.2484065 1.0327443 1.9905263e-38
3.2148073 1.2502947 1.0577892 1.9997458e-38
3.2499678 1.1390691 0.98635954 1.9813067e-38
3.1488481 1.308349 1.0505106 1.9997098e-38
3.1789362 1.3000649 1.0522009 1.9997098e-38
3.2119634 1.2999896 1.0599633 1.9997098e-38
3.2421 1.3169323 1.0530889 2.0089292e-38
3.1171896 1.3490692 1.0584428 1.9904902e-38
3.1497829 1.3423376 1.0591817 1.9905261e-38
3.1763649 1.3182653 1.0361588 1.9904901e-38
3.2272737 1.3289751 1.0383991 1.9904902e-38
3.2443352 1.2987773 1.0326846 1.9904901e-38
3.0368583 1.3945029 1.0746751 1.9813426e-38
3.0648537 1.3756225 1.0414917 1.9720871e-38
3.1000278 1.3832195 1.0550573 1.9812707e-38
3.1428914 1.3750144 1.0538535 1.9812708e-38
3.138402 1.2819551 0.8491177 1.9075143e-38
3.0361929 1.433207 1.0663266 1.9720871e-38
3.0596688 1.3806713 1.0279953 1.9628315e-38
3.0968649 1.4165955 1.0560344 1.9720513e-38
3.1342206 1.4127339 1.0549977 1.9720871e-38
3.1793578 1.4055184 1.0415165 1.9812708e-38
2.9324718 1.477649 1.0707961 1.9445002e-38
3.027534 1.4605517 1.0562155 1.953684e-38
3.0579236 1.4438183 1.0450896 1.9628315e-38
3.0970042 1.4541109 1.0563422 1.9628676e-38
3.129318 1.4569162 1.0597105 1.9628676e-38
2.9134517 1.5156393 1.0604775 1.9537195e-38
2.954963 1.5026793 1.0573426 1.9536479e-38
2.9762726 1.4942423 1.0526109 1.9444643e-38
3.0232515 1.4871417 1.0537126 1.9445002e-38
3.056937 1.4940066 1.0552706 1.9536839e-38
3.0927587 1.4935013 1.0597879 1.9628677e-38
2.8359332 1.5403435 1.0580335 1.9352805e-38
2.9033322 1.5503339 1.0572349 1.9444642e-38
2.9316978 1.5323679 1.0413218 1.9444282e-38
2.9768107 1.5159509 1.0411109 1.9444283e-38
3.0201888 1.5345516 1.0551007 1.9444643e-38
3.0550773 1.521363 1.0529703 1.9444643e-38
3.0909452 1.5262631 1.0732238 1.9719791e-38
2.8644207 1.5541345 1.0477717 1.9352802e-38
2.8988564 1.5699223 1.0568928 1.9352805e-38
2.9401991 1.5683314 1.0465155 1.9444283e-38
2.9785237 1.5648317 1.0525762 1.9352447e-38
3.0156565 1.5728307 1.0630062 1.9444643e-38
3.0424232 1.5761018 1.0644083 1.9444645e-38
2.9438508 1.6026981 1.0571824 1.9352806e-38
2.9662368 1.6091429 1.0653577 1.9352808e-38
3.0112844 1.6003538 1.0660949 1.9444645e-38
4.9914451 -2.0110898 1.1180785 4.2377676e-39
4.9248285 -1.9672518 1.1017308 3.8689809e-39
4.986979 -1.970579 1.0893495 3.5920366e-39
4.8588533 -1.9388865 1.0976038 4.5143503e-39
4.9183955 -1.9383483 1.0950574 3.5927583e-39
4.9247832 -1.933725 1.095162 3.5927569e-39
4.9812512 -1.9409018 1.0834653 3.31617e-39
4.8545156 -1.9018867 1.0917076 4.3299618e-39
4.8975968 -1.8927279 1.059463 3.4087272e-39
4.9245553 -1.8994538 1.094764 3.408723e-39
4.9930153 -1.9071139 1.1007942 3.0395789e-39
4.8317308 -1.826772 1.0718179 3.6860315e-39
4.9180679 -1.8806015 1.0749365 3.1321347e-39
4.9244175 -1.8655879 1.096565 3.2243303e-39
4.9943805 -1.8666415 1.0930594 2.8551821e-39
4.8475385 -1.7947612 1.0776746 3.2236058e-39
4.9087892 -1.8218395 1.060635 2.9473749e-39
4.9240766 -1.8253286 1.0945415 2.855538e-39
4.9939518 -1.8177452 1.0879182 1.3529345e-38
4.8527761 -1.7786973 1.0915262 5.1499989e-39
4.8906579 -1.7810892 1.0095944 1.0028451e-38
4.9235773 -1.7919519 1.0928508 1.1405622e-38
4.9932008 -1.7688985 1.0825684 2.2055107e-39
4.8543057 -1.7452719 1.0956068 7.2816583e-39
4.8696809 -1.7339888 0.97135317 4.2316299e-39
4.9233537 -1.7417084 1.0851675 3.2178465e-39
4.9934607 -1.7463639 1.0808673 2.0078404e-38
4.7880001 -1.7050012 1.0995209 2.6708244e-39
4.8494749 -1.699875 1.0860691 1.1054818e-38
4.9181614 -1.7045323 1.0838599 1.9906337e-38
4.9230452 -1.7044818 1.0837746 1.9814503e-38
4.7886014 -1.6689768 1.0928837 2.0087089e-38
4.8536787 -1.6573594 1.1005819 1.9722665e-38
4.7138395 -1.6031921 1.1102641 1.9814866e-38
4.7878361 -1.6190182 1.0887194 1.9630469e-38
4.8539963 -1.6225353 1.0907527 1.9538275e-38
4.6705952 -1.5459211 0.98413533 1.8616682e-38
4.7224951 -1.5677339 1.0989785 1.9722665e-38
4.7871609 -1.5799122 1.0937685 1.9630471e-38
4.8522873 -1.5898943 1.0897869 1.9354243e-38
4.7143393 -1.5438586 1.0700657 1.9446079e-38
4.7223654 -1.5387266 1.0987395 1.9722665e-38
4.7951102 -1.5624336 1.0794581 1.9445721e-38
4.7208595 -1.5054928 1.089468 1.9538275e-38
4.7223945 -1.5036269 1.1007594 1.9630471e-38
4.7870789 -1.5065057 1.1011461 1.9629755e-38
4.6571908 -1.4437407 1.10641 1.9630112e-38
4.7066154 -1.4448748 1.0888866 1.9445721e-38
4.7222667 -1.4674374 1.1052302 1.9629752e-38
4.7812648 -1.4421018 1.0896895 1.9353173e-38
4.5985508 -1.4124877 1.0878223 1.9446078e-38
4.6044145 -1.4052906 1.0968632 1.9722664e-38
4.6553311 -1.4112933 1.0975091 1.9446079e-38
4.6880503 -1.3789147 1.0831574 1.9445719e-38
4.7219825 -1.4147961 1.1102791 1.9537915e-38
4.5943031 -1.3799787 1.1154075 1.9722665e-38
4.6564636 -1.3809372 1.1010127 1.9446079e-38
4.6935368 -1.3663856 1.0855055 1.9169853e-38
4.721468 -1.3828002 1.1107541 1.9354245e-38
4.6125016 -1.3770229 1.0536586 1.898546e-38
4.6036038 -1.335742 1.1144865 1.9629393e-38
4.6542835 -1.342164 1.0982002 1.9353884e-38
4.7138858 -1.3488814 1.1113513 1.9446078e-38
4.7206659 -1.3516128 1.1102844 1.9446078e-38
4.5341005 -1.2857912 1.1005981 1.9538632e-38
4.595809 -1.2975562 1.0916369 1.9446078e-38
4.6008348 -1.2939678 1.0967679 1.9537914e-38
4.6502919 -1.3095609 1.0280787 1.8708516e-38
4.5339608 -1.2566804 1.1022394 1.9538274e-38
4.5884538 -1.2599624 1.0686595 1.9169851e-38
4.600039 -1.2671816 1.0804945 1.9629393e-38
4.4733911 -1.2018361 1.1029607 1.9538278e-38
4.5337024 -1.2206818 1.1008543 1.9537915e-38
4.6013656 -1.2540207 1.02271 1.8892907e-38
4.4761724 -1.1836486 1.1021812 1.9538276e-38
4.4840655 -1.1853473 1.1025468 1.9630473e-38
4.5324602 -1.1799868 1.0944556 1.9538275e-38
4.592308 -1.1779201 1.0896465 1.944644e-38
4.5281177 -1.1349289 1.0924236 1.9538276e-38
4.592196 -1.1350695 1.1076691 1.9538276e-38
4.4732356 -1.0838927 1.1035942 1.9630111e-38
4.5269179 -1.0957983 1.0886874 1.9538275e-38
4.591661 -1.1076112 1.0977397 1.9538276e-38
4.4752455 -1.0626599 1.1043509 1.9630831e-38
4.4813895 -1.0621486 1.1080163 1.9630469e-38
4.5292282 -1.0587494 1.0932227 1.9630472e-38
4.5911331 -1.075321 1.0844629 1.9630112e-38
4.4733558 -1.0260274 1.0964171 1.9722666e-38
4.4810915 -1.033051 1.0969623 1.9722668e-38
4.5280027 -1.0163896 1.0915611 1.9630471e-38
4.4144688 -0.97347933 1.1042018 1.9723026e-38
4.4733248 -0.97771162 1.0989608 1.9723026e-38
4.5231543 -0.9789803 1.0821348 1.9630831e-38
4.3626237 -0.92721951 1.09191 1.9815225e-38
4.4165316 -0.93440336 1.1017803 1.9814863e-38
4.4666986 -0.93043572 1.0868335 1.9723026e-38
4.4814692 -0.93669605 1.0976412 1.9723385e-38
4.5312409 -0.95151937 1.0882543 1.9723026e-38
4.3576837 -0.89608616 1.1070321 1.9814863e-38
4.3620625 -0.90016323 1.1071643 1.9815222e-38
4.416708 -0.90231389 1.0895047 1.9722666e-38
4.4726787 -0.89979666 1.0908269 1.9723026e-38
4.4811711 -0.90844214 1.0977263 1.9815218e-38
4.3552098 -0.84859747 1.0982487 1.9723026e-38
4.3618255 -0.85672617 1.102206 1.9814862e-38
4.4161429 -0.87638474 1.0795859 1.9630829e-38
4.4711337 -0.86367536 1.090598 1.9815221e-38
4.3056836 -0.80226588 1.096156 1.9814863e-38
4.3582034 -0.82115233 1.0934552 1.9814862e-38
4.3616924 -0.82020462 1.100644 1.9814863e-38
4.4141288 -0.8520385 1.05573 1.9446081e-38
4.4703751 -0.82754695 1.0898238 1.9906697e-38
4.3043418 -0.78573173 1.0946419 1.9815942e-38
4.8361807 -1.7842822 0.35486376 1.3637759e-38
4.3613415 -0.79389215 1.0919514 1.9998894e-38
4.4167509 -0.78650969 1.0897493 1.9815222e-38
3.3158498 -0.64115208 1.1125258 2.0459154e-38
3.3474863 -0.64442581 1.0875224 2.0275484e-38
3.3818412 -0.64947081 1.0834718 2.0367676e-38
3.4109459 -0.64345527 1.0932355 2.0367318e-38
3.3161135 -0.61552632 1.1000192 2.0367677e-38
3.3426514 -0.61509699 1.0885446 2.0367318e-38
3.3673277 -0.64403474 1.0580159 2.0275123e-38
3.3154957 -0.56210542 1.0874834 2.0367318e-38
3.3460214 -0.58175319 1.0944996 2.0367677e-38
3.3117993 -0.51572472 1.0702353 2.0184006e-38
3.3471289 -0.54108042 1.0961963 2.0276203e-38
3.3804426 -0.5236662 1.097425 1.7883454e-38
3.4143128 -0.52723598 1.1032256 1.7699062e-38
3.3431215 -0.49906525 1.0841862 1.3455943e-38
3.3787646 -0.50166821 1.0925043 9.7674286e-39
3.4126828 -0.49831209 1.0931751 1.0229821e-38
3.4476032 -0.49467766 1.1034832 1.0414568e-38
3.4900312 -0.48460135 1.1099751 1.0138347e-38
3.2788696 -0.47281927 1.1139029 1.1058848e-38
3.3130436 -0.46974319 1.1036888 1.1795342e-38
3.3479059 -0.47632533 1.0996966 1.1703865e-38
3.3834996 -0.51269197 1.0145005 1.1335803e-38
3.4129956 -0.47229034 1.0892732 1.0322737e-38
3.4426103 -0.48640758 1.0662739 1.0138344e-38
3.4897518 -0.4614934 1.0985985 9.1256311e-39
4.1479139 -0.44979277 1.0916843 6.35327e-39
4.2026248 -0.47852671 1.0740144 6.1681669e-39
4.2014236 -0.4576464 1.084318 6.0763328e-39
4.2485776 -0.46753678 1.08543 5.528554e-39
4.0979609 -0.43109637 1.1073513 9.2898199e-39
4.1481791 -0.42203489 1.0950305 1.2505106e-38
4.2004404 -0.42846611 1.078733 1.4162095e-38
4.2014532 -0.4153921 1.0896395 1.4162098e-38
4.248127 -0.41644397 1.0920222 1.4344686e-38
4.1005483 -0.37656158 1.1149117 1.5077927e-38
4.1475959 -0.38076264 1.0983504 1.5076122e-38
4.2012906 -0.39130446 1.0725454 1.5074685e-38
4.2014537 -0.37929487 1.0867791 1.5074325e-38
4.2489352 -0.38975552 1.0959052 1.4987169e-38
4.097405 -0.33562896 1.0966245 2.0177857e-38
4.1473217 -0.34075564 1.0996644 1.9067194e-38
4.1956029 -0.35386479 1.0842191 1.7861791e-38
4.0983744 -0.29889029 1.0862958 1.9723388e-38
4.1475616 -0.32405564 1.0878173 1.9723389e-38
4.0500135 -0.25868487 1.1009665 1.9723745e-38
4.0993204 -0.26382309 1.0872412 1.9631551e-38
4.0209799 -0.17206562 1.0118182 1.9078019e-38
4.0999942 -0.23054439 1.0857142 1.9538997e-38
4.0520258 -0.17420898 1.097538 1.9538998e-38
4.0990381 -0.18154247 1.0910298 1.9446801e-38
4.1387444 -0.1953443 1.1044556 1.935569e-38
3.9979274 -0.12979458 1.0844434 1.9723385e-38
4.0030746 -0.13029897 1.0923843 1.9631191e-38
4.0497026 -0.13366675 1.0957922 1.9631191e-38
4.0950351 -0.14291 1.0960823 1.9539355e-38
3.9108367 -0.085206144 1.0959504 2.0184366e-38
3.9577529 -0.10985342 1.0892583 1.9908138e-38
3.9852796 -0.10812323 1.1004084 1.9907779e-38
4.0024257 -0.12573691 1.0870807 1.9815223e-38
4.0477886 -0.11481854 1.0922006 1.9907416e-38
3.9105852 -0.056569714 1.0986797 2.0368757e-38
3.9686704 -0.095001064 1.0727422 2.0092171e-38
3.9616368 -0.058843717 1.1010042 2.0276562e-38
3.8659236 -0.012906663 1.0871665 2.0277281e-38
3.9150994 -0.031926811 1.0877943 2.0276563e-38
3.8677766 0.018022295 1.0954523 2.0000335e-38
3.9273946 -0.032815401 1.0645499 1.9815945e-38
3.8685846 0.056895413 1.0952369 1.9815585e-38
3.910496 0.073735178 1.0879803 1.9723388e-38
3.8234994 0.11762153 1.0951432 1.9630834e-38
3.8720417 0.088513359 1.0901096 1.9538998e-38
3.9102042 0.085533753 1.0856315 1.9723029e-38
3.783313 0.15466633 1.0955951 1.9630834e-38
3.8244123 0.13797909 1.0970919 1.9538638e-38
3.8686171 0.12059641 1.0910957 1.9630832e-38
3.7854669 0.16649593 1.069454 1.9815222e-38
3.8237851 0.17268963 1.0999558 1.9815582e-38
3.8640075 0.18406367 1.1091447 1.9999615e-38
3.7790062 0.20967141 1.0913461 2.0092171e-38
3.8225105 0.21705277 1.0901768 2.0091812e-38
3.8656476 0.22090489 1.111209 2.0092171e-38
3.7787645 0.24847278 1.0757208 2.0184368e-38
3.8228738 0.25631893 1.1059151 2.0276562e-38
3.8645875 0.2405449 1.1014347 2.0459874e-38
3.7400312 0.29772294 1.0915838 2.0276563e-38
3.7802176 0.29763648 1.0906874 2.0276563e-38
3.8229156 0.29134056 1.1039711 2.0276563e-38
3.6962695 0.35082504 1.0817052 2.0552068e-38
3.7388811 0.33382699 1.0907173 2.0184368e-38
3.779861 0.32647419 1.0882722 2.0092532e-38
3.8212869 0.32520932 1.1061778 2.0276563e-38
3.6989429 0.38990825 1.0908856 2.0276203e-38
3.738138 0.37662286 1.0928121 2.0184366e-38
3.6986773 0.41566509 1.0902313 2.0276202e-38
3.7374096 0.40431225 1.0829575 2.0184006e-38
3.6988256 0.45400465 1.0905447 2.0276562e-38
3.7388422 0.44234237 1.0883414 2.0368397e-38
3.6078985 0.49842721 1.0536956 2.0276202e-38
3.6608937 0.4841671 1.0786716 2.0276562e-38
3.7036757 0.48237738 1.0809035 2.0368397e-38
3.7335451 0.49630722 1.0804527 2.03684e-38
3.6234753 0.53903025 1.0870509 2.0368399e-38
3.6614304 0.52815688 1.0936966 2.0368399e-38
3.6970739 0.52931577 1.1004558 2.0368759e-38
3.5802953 0.5883469 1.1115692 2.0368757e-38
3.6219749 0.56222296 1.0862547 2.0368397e-38
3.6566498 0.58926541 1.1027591 2.0460593e-38
3.5805161 0.6324504 1.1071981 2.0460234e-38
3.6188533 0.60848051 1.0918112 2.0368397e-38
3.6797183 0.54404575 1.0383458 2.009181e-38
3.5441825 0.67625761 1.0916252 2.036768e-38
3.5797291 0.66520166 1.1006798 2.0368039e-38
3.6153414 0.64936417 1.0960323 2.0368399e-38
3.5077879 0.71354628 1.0806925 2.0275486e-38
3.5433102 0.69954741 1.0954584 2.0367678e-38
3.5765622 0.69387627 1.0934504 2.0275843e-38
3.5077524 0.73638558 1.0823873 2.0275483e-38
3.5422745 0.7308194 1.0943075 2.0183646e-38
3.5476389 0.71015787 1.0084631 1.9814863e-38
3.4382815 0.79206777 1.0963532 2.0459514e-38
3.4712999 0.79786313 1.0957202 2.0183287e-38
3.5071352 0.79281676 1.1042581 2.0183647e-38
3.5431736 0.77004218 1.0959065 2.0183286e-38
3.5779099 0.79156888 1.0993413 2.0183646e-38
3.4733925 0.81227291 1.0893475 2.0183286e-38
3.5102763 0.80640656 1.0835752 2.009109e-38
3.5433896 0.81407684 1.1011592 2.0183287e-38
3.5800948 0.8044852 1.1000009 2.0183647e-38
3.4356186 0.87535751 1.0982975 2.0182927e-38
3.4719343 0.86549044 1.0939195 2.0091092e-38
3.5085657 0.84358102 1.0804121 1.9999255e-38
3.5434785 0.84930098 1.1067551 2.009145e-38
3.3988266 0.90084893 1.0928665 2.0182565e-38
3.4324353 0.89333892 1.0936471 2.0182565e-38
3.4612389 0.87615198 1.0752693 2.009073e-38
3.5093267 0.87372953 1.0715666 2.009073e-38
3.3956716 0.94705516 1.1026736 2.0090731e-38
3.43257 0.93381542 1.0961522 2.009073e-38
3.431706 0.88933992 1.0535612 1.9906337e-38
3.3523023 0.98787242 1.1024922 2.0090371e-38
3.3874805 0.97209603 1.0950464 2.0090371e-38
3.4130628 0.95922363 1.0907426 1.9998536e-38
3.4256332 0.83351362 1.0020024 1.9537916e-38
3.2741761 1.0258539 1.1171114 2.0182568e-38
3.3002608 1.0296646 1.090325 2.0090373e-38
3.3363571 1.0222118 1.1081721 2.009073e-38
3.3815045 1.0178386 1.0994203 2.0090371e-38
3.4038355 1.0016463 1.0863476 1.9998534e-38
3.30035 1.0553775 1.0915318 2.0090373e-38
3.3357589 1.058597 1.1014175 2.0182207e-38
3.378304 1.028841 1.0962958 2.009037e-38
3.4105408 0.98045027 1.0597771 1.990598e-38
3.2284718 1.1184207 1.0968512 2.0274041e-38
3.271564 1.1015195 1.0909102 2.0182207e-38
3.2947872 1.0906047 1.0882492 2.0090011e-38
3.336467 1.0839686 1.1068695 2.0182207e-38
3.2364056 1.1408544 1.0977618 2.0181848e-38
3.2708535 1.1421899 1.0999588 2.0181848e-38
3.2886496 1.1306251 1.0755297 2.0089652e-38
3.3370714 1.1472613 1.1123528 2.0181847e-38
3.2245698 1.1870109 1.0894814 2.0090011e-38
3.2670898 1.1812028 1.0943046 2.0090013e-38
3.2851346 1.1709696 1.0682944 1.9997817e-38
3.3405657 1.1621363 1.109427 2.0090371e-38
3.1887436 1.2162319 1.0911703 2.0090013e-38
3.2182007 1.2154125 1.0874984 2.0089652e-38
3.248615 1.1996064 1.0834783 2.0089651e-38
3.1502948 1.2699544 1.1017008 2.0089295e-38
3.1791549 1.2424847 1.064134 1.9905263e-38
3.2195272 1.2538923 1.0887455 1.9997818e-38
3.2493641 1.2441348 1.0836846 1.9905981e-38
3.1496201 1.3115342 1.1088641 1.9997099e-38
3.1791975 1.2918586 1.091761 1.9997098e-38
3.2135422 1.2915785 1.0972046 2.0089294e-38
3.2446067 1.2888101 1.1000061 2.0089294e-38
3.1171293 1.3456085 1.0898151 1.9904902e-38
3.1493762 1.3419617 1.1028301 1.9997097e-38
3.176698 1.3064343 1.0755051 1.9904902e-38
3.2092769 1.3318458 1.0994462 1.9997098e-38
3.0374994 1.375211 1.0968622 1.9813067e-38
3.0535731 1.3632884 1.0679098 1.9628674e-38
3.1025434 1.3667787 1.0748671 1.9812708e-38
3.1416631 1.3667809 1.0934472 1.9904902e-38
3.1548705 1.2644674 1.0048742 1.9444283e-38
3.036716 1.409433 1.0940682 1.972087e-38
3.0549483 1.3797299 1.0582702 1.9628676e-38
3.0983477 1.4151895 1.0946337 1.9813067e-38
3.136786 1.4191494 1.1036447 1.9813068e-38
3.1779203 1.4193263 1.1112579 1.9813068e-38
2.9388721 1.4777569 1.1048851 1.9720514e-38
3.0271785 1.4662161 1.0949612 1.9536839e-38
3.0569997 1.4516158 1.0815202 1.9536839e-38
3.0951092 1.4464765 1.0884104 1.9628674e-38
3.1270955 1.4605231 1.0974499 1.972087e-38
2.914674 1.5008303 1.0842767 1.9536842e-38
2.9415545 1.5007505 1.0886484 1.9536839e-38
2.9732099 1.4955071 1.0866101 1.9445003e-38
3.0230141 1.5011418 1.0925773 1.9536839e-38
3.0526466 1.4862384 1.0771226 1.9444645e-38
3.0918162 1.4860699 1.096475 1.9628674e-38
3.123451 1.4836481 1.1065798 1.9629034e-38
2.8320215 1.5327604 1.0801432 1.9352809e-38
2.8528697 1.5256854 1.0623025 1.9260611e-38
2.8950677 1.5479451 1.0950822 1.9444642e-38
2.9390121 1.5342335 1.0883152 1.9444642e-38
2.9646511 1.5277902 1.0842899 1.9444643e-38
3.0189173 1.537406 1.0986197 1.9536479e-38
3.0527673 1.5328705 1.0959734 1.9536839e-38
2.8976016 1.5687141 1.0988061 1.9352805e-38
2.9377375 1.5592117 1.0846612 1.9444642e-38
2.9728405 1.5774075 1.1014704 1.9536477e-38
3.0264556 1.5737131 1.0892761 1.9444643e-38
3.0430353 1.5813425 1.0879257 1.9444643e-38
2.9573188 1.6039126 1.0808067 1.9444283e-38
2.9779737 1.6054658 1.0943563 1.9445002e-38
3.0156579 1.6128111 1.1113416 1.953684e-38
4.918294 -1.9655374 1.1266975 4.8827755e-39
4.9236794 -1.9708533 1.1273975 4.6054627e-39
4.9930429 -1.9754528 1.1314589 4.7905742e-39
4.8553963 -1.9218662 1.1413009 4.882051e-39
4.8930106 -1.9263811 1.0906755 4.9749669e-39
4.9244061 -1.9368932 1.1421279 4.8824111e-39
4.9940434 -1.958706 1.1181787 4.6991003e-39
4.8557253 -1.9056525 1.1327308 4.8824111e-39
4.9172206 -1.9005735 1.1418422 4.8827698e-39
4.9243736 -1.9002756 1.1421682 4.7905742e-39
4.993959 -1.914304 1.1454908 4.6987387e-39
4.8530807 -1.8490571 1.1339653 4.6990989e-39
4.9161263 -1.8780946 1.1033472 4.054807e-39
4.9241619 -1.8631728 1.1405138 3.9626114e-39
4.9950528 -1.875069 1.1437529 3.4090775e-39
4.8527536 -1.815957 1.1365182 3.2246834e-39
4.8993907 -1.8546976 1.0423294 3.8671704e-39
4.9239111 -1.8254751 1.1432441 3.6834952e-39
4.9936051 -1.8081203 1.1370102 1.0498771e-38
4.8537889 -1.7798622 1.1332093 3.4962425e-39
4.9197073 -1.7850091 1.0256356 7.3691638e-39
4.9234428 -1.7901382 1.1429245 7.2751675e-39
4.8540888 -1.7449478 1.1351039 7.6518659e-39
4.8605776 -1.7473154 0.86660516 2.8551835e-39
4.9219861 -1.7439919 1.1472598 2.947742e-39
4.786972 -1.7043248 1.1254032 3.9622695e-39
4.850028 -1.7038932 1.1315588 1.0962974e-38
4.7841501 -1.6576797 1.1250265 1.999599e-38
4.8536344 -1.6576064 1.1336749 1.9906337e-38
4.7152729 -1.6088638 1.1342118 1.9998894e-38
4.7210531 -1.6030897 1.1275793 1.9998896e-38
4.7838674 -1.6132113 1.128695 1.9814503e-38
4.8530884 -1.6263494 1.1265188 1.9814143e-38
4.6988058 -1.5869253 1.0816597 1.9538275e-38
4.7214098 -1.5752019 1.1281759 1.9906699e-38
4.7852545 -1.578988 1.1333561 1.9814503e-38
4.7363605 -1.6065476 1.0234969 1.8984743e-38
4.7224808 -1.5374633 1.1323228 1.9814503e-38
4.7806702 -1.5397166 1.1297923 1.9722306e-38
4.7330346 -1.5188192 1.1028805 1.9537555e-38
4.7224398 -1.495648 1.135716 1.9814143e-38
4.784884 -1.5099452 1.1396044 1.9722306e-38
4.5942903 -1.4410093 1.1489289 1.9906699e-38
4.6604166 -1.4577252 1.1416683 1.9814143e-38
4.7223039 -1.4768453 1.1216033 1.9537916e-38
4.7221723 -1.4689759 1.1376761 1.9722308e-38
4.7799444 -1.4790154 1.1258501 1.9722305e-38
4.5941257 -1.4098239 1.1447783 1.9814502e-38
4.6041846 -1.4054506 1.1491036 1.9814505e-38
4.6572332 -1.4222863 1.1312343 1.9630111e-38
4.7171512 -1.4151608 1.1429236 1.9630112e-38
4.7218318 -1.4153258 1.1436281 1.9630111e-38
4.7836356 -1.4242327 1.1261106 1.9721943e-38
4.5924754 -1.3856696 1.1433784 1.9814502e-38
4.604001 -1.3880501 1.1491561 1.9813787e-38
4.6563501 -1.3941777 1.1214672 1.9446081e-38
4.7172031 -1.388191 1.1441168 1.9538276e-38
4.7217822 -1.3884056 1.1440089 1.9538275e-38
4.6495409 -1.5602292 0.88728493 1.8063505e-38
4.6529579 -1.3447374 1.1316905 1.9538272e-38
4.7122016 -1.3478732 1.1296725 1.9538279e-38
4.53373 -1.2858664 1.1471932 1.9722666e-38
4.5933442 -1.3000816 1.129298 1.9538275e-38
4.6011133 -1.2957044 1.1413802 1.9630471e-38
4.8216867 -1.5662901 0.92636359 1.7417417e-38
4.533814 -1.262059 1.1406617 1.9722308e-38
4.5948815 -1.266283 1.1319257 1.9446079e-38
4.5337353 -1.2140481 1.1417845 1.9630472e-38
4.5992503 -1.2607516 1.0896281 1.9169494e-38
4.4783154 -1.1851351 1.1206045 1.972195e-38
4.5322924 -1.1778494 1.136585 1.9630472e-38
4.5915294 -1.1682146 1.1386422 1.9630473e-38
4.4703779 -1.1351283 1.1376545 1.9722666e-38
4.5315599 -1.138839 1.1352085 1.9630472e-38
4.5923996 -1.1335851 1.1410187 1.9630472e-38
4.4736619 -1.090368 1.149613 1.9814502e-38
4.4811625 -1.0840253 1.1541021 1.9998173e-38
4.5306945 -1.1018239 1.1331859 1.9630471e-38
4.4746461 -1.0603909 1.1268815 1.9814503e-38
4.4806581 -1.0598503 1.1252269 1.9814502e-38
4.5295944 -1.0621415 1.1356642 1.9722666e-38
4.4166217 -1.0045292 1.1520432 1.9906699e-38
4.473803 -1.0201582 1.1363832 1.9814862e-38
4.4809008 -1.024575 1.1310381 1.9723026e-38
4.5209451 -1.016166 1.0888032 1.9446081e-38
4.3579764 -0.99307394 1.14143 1.9998893e-38
4.3616943 -0.99311936 1.1413168 1.9998534e-38
4.4168301 -0.98184389 1.1438273 1.9907058e-38
4.472456 -0.9819634 1.1387067 1.9815221e-38
4.48172 -0.97864324 1.1404929 1.9907056e-38
4.5207505 -1.0269144 1.0534292 1.9170213e-38
4.3559747 -0.92700094 1.1583937 2.0090731e-38
4.3610644 -0.92726141 1.1248765 2.009109e-38
4.4138002 -0.93286318 1.1246554 1.9814862e-38
4.475584 -0.96134627 1.1140523 1.9630831e-38
4.3050423 -0.88341939 1.1432486 1.9907059e-38
4.3571825 -0.90314019 1.125471 1.9814863e-38
4.3618808 -0.90175974 1.14113 1.9907059e-38
4.4043274 -0.88025683 1.1089505 1.9723025e-38
4.4709001 -0.90098602 1.1238844 1.9814861e-38
4.3115396 -0.85984248 1.1270015 1.9815579e-38
4.3565865 -0.86853182 1.1200598 1.9814503e-38
4.3617382 -0.8626374 1.1382771 1.9907056e-38
4.3972049 -0.83611059 1.1003708 1.9630469e-38
4.3574419 -0.82072783 1.1335931 1.9907418e-38
4.3616495 -0.82048857 1.1337969 1.9907058e-38
4.3959613 -0.81653488 1.0846184 1.944644e-38
3.3147156 -0.64092368 1.1251597 2.0367678e-38
3.3202271 -0.6401605 1.125996 2.0459873e-38
