# .PCD v0.7 - Point Cloud Data file format
VERSION 0.7
FIELDS x y z rgb
SIZE 4 4 4 4
TYPE F F F F
COUNT 1 1 1 1
WIDTH 1024
HEIGHT 1
VIEWPOINT 0 0 0 1 0 0 0
POINTS 1024
DATA ascii
3.9089103 -0.10157353 -0.33991891 6.8210291e-39
3.9536779 -0.11667269 -0.33068606 7.4653293e-39
3.780225 -0.043846458 -0.32570937 1.0137552e-38
3.8226535 -0.051206663 -0.3411161 7.0054301e-39
3.86585 -0.068463966 -0.33979702 8.0181345e-39
3.9092996 -0.073063567 -0.34336656 6.4536941e-39
3.7806282 -0.012615851 -0.32691118 1.0783643e-38
3.8228159 -0.018864438 -0.34111395 8.2961662e-39
3.8658655 -0.023665577 -0.35444075 6.2664316e-39
3.6997867 0.037711959 -0.32929254 1.2718664e-38
3.7396021 0.030406581 -0.33882543 9.5869078e-39
3.7806559 0.014401677 -0.33863667 9.2177651e-39
3.8224735 0.0077404859 -0.33944747 9.6787377e-39
3.8653097 0.0045638531 -0.34501049 1.0139713e-38
3.6996675 0.068755016 -0.33313373 1.2535362e-38
3.739435 0.056572411 -0.34110481 1.0509942e-38
3.6604373 0.098126933 -0.33529904 1.2166945e-38
3.6993115 0.098813668 -0.3449823 1.0231924e-38
3.738287 0.083012797 -0.34209505 1.1339342e-38
3.6228352 0.15513767 -0.33216116 1.2627919e-38
3.6602612 0.14557166 -0.34055468 1.198327e-38
3.6991274 0.13311553 -0.34369582 1.1430459e-38
3.5841851 0.18904857 -0.33106408 1.2535363e-38
3.6220632 0.17858259 -0.33910045 1.2535722e-38
3.659986 0.16804342 -0.34597588 1.2167302e-38
3.6994414 0.16174982 -0.35689631 1.0142244e-38
3.5475395 0.23739922 -0.33392152 1.2997056e-38
3.5839002 0.21879753 -0.33865631 1.2350253e-38
3.6216969 0.20424154 -0.3361381 1.2903783e-38
3.5116746 0.27736238 -0.34614396 1.3549153e-38
3.5470359 0.26834217 -0.34417504 1.3272571e-38
3.5836699 0.25412744 -0.33689892 1.3456958e-38
3.4386592 0.31440166 -0.33675006 1.3549871e-38
3.4749937 0.30931434 -0.33692619 1.4194161e-38
3.5107014 0.29808238 -0.34391746 1.4009766e-38
3.5463254 0.28929865 -0.33897814 1.3733183e-38
3.5827968 0.28723258 -0.32100099 1.3640989e-38
3.4389117 0.3455317 -0.33583429 1.4286e-38
3.4570651 0.33703884 -0.33702552 1.428636e-38
3.5110724 0.32889447 -0.34398654 1.4378558e-38
3.4252214 0.38189247 -0.34020451 1.4193804e-38
3.441519 0.37662035 -0.34335661 1.4194161e-38
3.3735876 0.43156096 -0.34256387 1.3825379e-38
3.4155054 0.41964313 -0.34233305 1.4009411e-38
3.4412348 0.41570905 -0.34420636 1.4009771e-38
2.985549 0.47721437 -0.3259958 1.2903424e-38
3.0213699 0.47367576 -0.32985502 1.3180011e-38
3.0459261 0.47743648 -0.32960218 1.3088172e-38
3.3404765 0.4717012 -0.33586046 1.3640986e-38
3.373379 0.46147633 -0.34198675 1.3732824e-38
3.4061558 0.4580268 -0.33977365 1.3733185e-38
2.9071941 0.51035649 -0.35013241 7.8333915e-39
2.9435039 0.51157993 -0.34553358 8.5713139e-39
2.9892998 0.49776492 -0.33312586 1.2350969e-38
3.019249 0.50101697 -0.33815688 1.2443523e-38
3.0551488 0.50233054 -0.34525627 1.2259133e-38
3.1010184 0.49915385 -0.35136729 1.2443525e-38
3.1296296 0.50368178 -0.35066089 1.3272204e-38
3.271452 0.51182127 -0.34826389 1.3180009e-38
3.3084571 0.50851941 -0.3433896 1.3272206e-38
3.3409295 0.50473768 -0.33615401 1.3456596e-38
3.373076 0.49361494 -0.33832118 1.3548792e-38
3.4059889 0.48966363 -0.3474513 1.3640627e-38
2.9160421 0.54467261 -0.34596244 5.3441053e-39
2.9421303 0.54444641 -0.34410867 5.712885e-39
2.9798872 0.54119742 -0.34582973 6.4508158e-39
3.01897 0.53640831 -0.34213424 8.3876401e-39
3.0531631 0.53427643 -0.34188205 1.0231909e-38
3.1018803 0.53682935 -0.34598202 1.0508135e-38
3.1273868 0.55359435 -0.33392063 9.0340829e-39
3.2753968 0.52118719 -0.35063061 1.3088172e-38
3.3084974 0.52394241 -0.35510293 1.3088174e-38
3.3385148 0.5223797 -0.33765593 1.3272206e-38
3.3717599 0.52262414 -0.33513233 1.3364399e-38
2.8177536 0.5931474 -0.34843981 4.879893e-39
2.8653307 0.59175104 -0.34310359 3.591308e-39
2.9106438 0.58678222 -0.34048614 4.7909245e-39
2.94082 0.58304822 -0.34296945 5.1597099e-39
2.9718506 0.58166283 -0.34198797 4.8824083e-39
3.0177906 0.57340282 -0.33720854 4.8827684e-39
3.0508821 0.57621831 -0.33961904 5.251551e-39
3.099447 0.59396881 -0.32414398 3.8675487e-39
2.7950206 0.61518323 -0.33639631 5.2522642e-39
2.8208475 0.62137538 -0.34470537 5.0678758e-39
2.8580518 0.62143934 -0.34422389 5.0675184e-39
2.9065788 0.6166451 -0.34108946 4.7909273e-39
2.9407227 0.61730456 -0.33999115 4.6065375e-39
2.9700482 0.61833715 -0.3373827 4.2366788e-39
3.0181434 0.62539405 -0.33025926 4.0512099e-39
3.054884 0.61772025 -0.33315974 3.8686151e-39
2.7554281 0.67512482 -0.34429464 4.9753186e-39
2.788188 0.6685226 -0.34111866 4.0540896e-39
2.8196208 0.66682696 -0.34209394 4.5150635e-39
2.8585377 0.65961128 -0.34579512 4.9756759e-39
2.9006226 0.65908509 -0.35101217 5.0671555e-39
2.941797 0.65284228 -0.3393237 5.2522698e-39
2.9726367 0.64940262 -0.33078715 5.7125333e-39
3.0169775 0.65677804 -0.3352752 5.6199762e-39
3.049974 0.6643548 -0.33247039 5.1586393e-39
2.7492452 0.70809382 -0.34448043 8.2025146e-39
2.7916043 0.69302881 -0.3467305 5.712169e-39
2.8220453 0.7001012 -0.34241727 5.6203293e-39
2.8526065 0.70024425 -0.33740664 5.5281351e-39
2.8969903 0.69361997 -0.34760463 4.6990933e-39
2.9386435 0.69819468 -0.34864071 5.1607833e-39
2.9649696 0.69180906 -0.34990144 5.1600658e-39
3.0720644 0.68124044 -0.32665378 5.7132494e-39
2.7539172 0.74261868 -0.33511397 7.3727511e-39
2.7872529 0.75069416 -0.3383491 6.0813018e-39
2.820467 0.74308246 -0.34439221 6.9121415e-39
2.8537591 0.74106503 -0.33504003 5.6203293e-39
2.8917286 0.74557555 -0.3376984 5.6199705e-39
2.9365165 0.7372992 -0.34553289 6.4479348e-39
2.4258308 0.79108977 -0.34335935 5.251544e-39
2.4558685 0.79538548 -0.33536795 4.97532e-39
2.7133574 0.79039937 -0.32420084 5.1589812e-39
2.7484977 0.78348565 -0.32896805 5.4362996e-39
2.7877226 0.78038901 -0.32573029 4.7902155e-39
2.8207943 0.7744543 -0.33866876 4.7905742e-39
2.853127 0.77852267 -0.34133682 4.8831286e-39
2.8963554 0.77265346 -0.33570221 4.5139859e-39
2.9337978 0.78128332 -0.34245181 4.5125496e-39
2.3949327 0.8382324 -0.32221335 1.0501335e-38
2.4296484 0.82760561 -0.34064609 1.8435805e-39
2.4589627 0.82608771 -0.34005567 2.6722538e-39
2.4965684 0.82509249 -0.33927083 4.3299576e-39
2.530457 0.82766968 -0.34075341 5.3426606e-39
2.6629453 0.83649647 -0.3552441 5.2519069e-39
2.7517869 0.82070261 -0.32793278 3.4994697e-39
2.7825427 0.81804067 -0.32558796 4.5139719e-39
2.8188646 0.81504405 -0.33429897 5.7121592e-39
2.8578765 0.81516999 -0.34647194 6.0805886e-39
2.8940406 0.82389867 -0.35497779 6.0809501e-39
2.9302478 0.83126169 -0.35608402 6.4493711e-39
2.3897595 0.8697502 -0.32975084 1.0412689e-38
2.4264872 0.86422962 -0.34189218 6.0809487e-39
2.4535329 0.85885412 -0.34068856 5.3441109e-39
2.4966338 0.85810834 -0.33429465 5.2533572e-39
2.5312734 0.87167114 -0.32820728 3.5034409e-39
2.628489 0.84615463 -0.34381574 4.9746081e-39
2.6638103 0.85230678 -0.34885371 5.4352234e-39
2.6999133 0.86218256 -0.34521198 5.4345031e-39
2.7464895 0.86870742 -0.33328232 4.0515672e-39
2.7772439 0.86118156 -0.32611796 2.0250641e-39
2.821656 0.85239244 -0.3370676 3.2236044e-39
2.8586488 0.84867102 -0.34933054 4.3292317e-39
2.9069393 0.85409439 -0.35528678 4.9745983e-39
2.9311216 0.858814 -0.35549781 5.3430179e-39
2.9634192 0.87177402 -0.35573894 5.3430123e-39
2.3048759 0.91268826 -0.32474989 1.1794932e-38
2.3520956 0.91237766 -0.33428636 9.1241163e-39
2.3860397 0.90631133 -0.34236494 5.6203349e-39
2.419349 0.89853179 -0.34075159 7.0025505e-39
2.4528155 0.88880491 -0.34033567 7.6475485e-39
2.4969325 0.88874829 -0.33637312 8.8460903e-39
2.532546 0.88536203 -0.32878792 8.4794392e-39
2.7431428 0.88398999 -0.33681175 4.8827684e-39
2.7794137 0.89157099 -0.3274782 5.1579064e-39
2.8173659 0.90251231 -0.33703282 5.4344933e-39
2.8476152 0.91273904 -0.34470057 5.5274106e-39
2.9172299 0.88705254 -0.35968459 3.7749888e-39
2.9396431 0.889705 -0.35427222 2.9466616e-39
2.9637637 0.89217538 -0.35563618 3.3150826e-39
2.3106637 0.94807315 -0.3360514 7.5553613e-39
2.3445055 0.94489968 -0.34182858 5.9891202e-39
2.3800466 0.9383806 -0.34054768 6.5419297e-39
2.4135695 0.9361015 -0.33968431 7.4638803e-39
2.4463139 0.93070579 -0.3295911 6.1702605e-39
2.8285465 0.92127496 -0.32913461 5.8029087e-39
2.8414397 0.92011982 -0.3290751 5.25226e-39
2.182107 0.99570554 -0.32540083 1.0224702e-38
2.2703042 0.9952215 -0.35334775 2.9477476e-39
2.3062191 0.98150897 -0.3461667 5.2508377e-39
2.3389812 0.98000318 -0.34191269 7.0943846e-39
2.374738 0.97727448 -0.33468917 7.6464709e-39
2.4196491 0.97428316 -0.32964942 6.7237944e-39
2.4457581 0.98480642 -0.32541585 4.1470223e-39
2.1132827 1.0306988 -0.35337532 1.1242093e-38
2.1384249 1.0333138 -0.34591314 1.068964e-38
2.1812236 1.0307453 -0.33772039 5.1608015e-39
2.2197099 1.0313704 -0.34019372 3.9622527e-39
2.2630665 1.0253359 -0.34692413 4.8824041e-39
2.2998781 1.0217193 -0.34783167 6.0798767e-39
2.3415344 1.0191181 -0.33938771 8.6602599e-39
2.373702 1.0229932 -0.33141378 6.6337651e-39
2.4096849 1.027167 -0.32588491 1.750673e-39
2.4569478 1.0129759 -0.32462412 2.0261725e-39
2.4935739 1.0090694 -0.32726109 1.5680838e-39
2.0710037 1.0716766 -0.34533828 9.120501e-39
2.1041934 1.0639821 -0.3425853 1.0043186e-38
2.1372836 1.059153 -0.33671409 1.0873671e-38
2.1729853 1.0506251 -0.33986634 1.0505612e-38
2.2155836 1.0448676 -0.34087422 3.6860385e-39
2.2587733 1.0438766 -0.34381443 4.8831202e-39
2.301564 1.048434 -0.34533584 7.6461108e-39
2.3410597 1.0511703 -0.33612928 7.3709672e-39
2.3739879 1.0588998 -0.32968923 3.9611863e-39
2.4279895 1.0528187 -0.32437065 2.6719006e-39
2.4566376 1.0589663 -0.32273197 2.1205289e-39
2.0315466 1.1171421 -0.33864304 1.1426843e-38
2.067028 1.1052952 -0.34611875 1.0965502e-38
2.0946913 1.0979521 -0.33748481 1.013574e-38
2.1262641 1.090097 -0.3361474 9.8595122e-39
2.1632395 1.0832232 -0.33272868 1.096623e-38
2.3837607 1.0837785 -0.32891369 2.3038398e-39
2.4169838 1.0971978 -0.32675615 2.0283375e-39
2.4425857 1.1163177 -0.32588664 2.1205331e-39
2.5049381 1.0826236 -0.32140741 2.8566548e-39
2.0352051 1.1246502 -0.34186703 1.1426845e-38
2.0608203 1.1291839 -0.33901063 1.1334648e-38
2.0890696 1.1280247 -0.3347871 1.1334649e-38
2.1221781 1.1330392 -0.34320891 1.1333925e-38
2.4531624 1.1243106 -0.32326165 2.8562849e-39
4.6355934 -2.8051288 -0.30092144 5.6196146e-39
4.7063398 -2.8028016 -0.31093597 4.6104849e-39
4.5792594 -2.7647371 -0.30121896 4.8838502e-39
4.6370583 -2.7814176 -0.3117007 4.6108535e-39
4.646059 -2.78181 -0.30425641 4.9771179e-39
4.7063541 -2.7849255 -0.3109363 4.5179306e-39
4.512548 -2.7319801 -0.28740984 5.7114515e-39
4.5258446 -2.7236526 -0.29904479 4.5139915e-39
4.5854545 -2.7439282 -0.30274814 4.6076221e-39
4.6366863 -2.7528734 -0.31088787 4.7016044e-39
4.648839 -2.7474184 -0.30605441 4.7934469e-39
4.4701538 -2.6874001 -0.29663527 4.5150677e-39
4.5140505 -2.7009797 -0.2910639 5.5284966e-39
4.5292664 -2.7034311 -0.3004528 4.2377634e-39
4.5842853 -2.7065239 -0.29857886 5.0693149e-39
4.6070356 -2.7015219 -0.30298343 4.7938028e-39
4.4249015 -2.6437542 -0.29846907 3.9618982e-39
4.4686446 -2.6635437 -0.29483169 4.6076207e-39
4.4907088 -2.6696296 -0.30491334 3.5002025e-39
4.5264482 -2.6683791 -0.29281443 5.2529859e-39
4.354785 -2.6072338 -0.30191198 2.9459512e-39
4.3861413 -2.6168008 -0.29232416 4.9774864e-39
4.4208097 -2.6215672 -0.29535559 4.2402745e-39
4.4675002 -2.6324468 -0.28995058 5.3448186e-39
4.4866004 -2.6269066 -0.29705822 4.7008897e-39
4.5320225 -2.6331122 -0.28272527 5.1590176e-39
4.3073492 -2.5679152 -0.29756078 3.2250478e-39
4.3548837 -2.5794275 -0.28871363 4.7016086e-39
4.375957 -2.5805838 -0.29178834 4.1480789e-39
4.422895 -2.5929863 -0.29114863 4.7934399e-39
4.2487197 -2.5281079 -0.28440195 4.1487935e-39
4.3081284 -2.5436764 -0.285081 4.6097703e-39
4.3363748 -2.5456741 -0.28650659 4.6097675e-39
4.3771634 -2.5546508 -0.2890192 4.6094116e-39
4.1467481 -2.4837444 -0.31355309 2.6679069e-39
4.251142 -2.5033517 -0.28199795 4.517932e-39
4.099237 -2.4535575 -0.31465852 3.2189199e-39
4.1345053 -2.4433517 -0.2804662 4.7941475e-39
4.1863422 -2.4715714 -0.2814849 4.3342638e-39
4.2678385 -2.4768023 -0.28484392 4.4264552e-39
4.2998481 -2.4438286 -0.28612858 3.9622653e-39
3.9971132 -2.4022682 -0.30924559 3.1274417e-39
4.0390482 -2.417901 -0.2978586 2.4831625e-39
4.0489473 -2.4188766 -0.30655393 3.1270872e-39
4.0947804 -2.420506 -0.28835845 2.0232676e-39
4.1392612 -2.4108365 -0.30633539 4.6065361e-39
4.2468247 -2.4161882 -0.28185907 4.0537379e-39
3.9517226 -2.3698812 -0.29942432 2.8519437e-39
3.9908359 -2.3749292 -0.29903996 3.0356146e-39
4.0111699 -2.3783762 -0.29917186 3.0356146e-39
4.0459437 -2.375036 -0.30079353 3.4043986e-39
4.0918236 -2.3742185 -0.30478701 4.8802475e-39
4.1417232 -2.3790555 -0.29780623 4.7909414e-39
4.1898332 -2.3848026 -0.29128599 4.2374032e-39
4.2474003 -2.3971732 -0.28219843 4.1470069e-39
3.866617 -2.3208098 -0.29568899 3.1303256e-39
3.9119596 -2.334336 -0.30068934 3.774616e-39
3.9532151 -2.3387766 -0.30092326 3.4047545e-39
3.9826405 -2.3409781 -0.30161533 3.7728182e-39
4.0062118 -2.3325012 -0.29954404 4.2337977e-39
4.0489426 -2.3390641 -0.30105501 5.0646388e-39
4.0946994 -2.3420763 -0.29957983 4.8824153e-39
4.1486578 -2.3390212 -0.29779369 4.6040222e-39
3.8257771 -2.2929492 -0.28499556 1.9321496e-39
3.8674459 -2.2997873 -0.29235938 3.1296123e-39
3.9053869 -2.3016446 -0.30072674 4.7876917e-39
3.947701 -2.2986712 -0.29895818 4.6033019e-39
3.9765825 -2.2961619 -0.29975447 4.6954961e-39
4.0091643 -2.3005838 -0.29833534 5.3412285e-39
4.0522842 -2.3066828 -0.29560459 4.9746067e-39
4.099824 -2.3086035 -0.29796362 4.6972912e-39
3.7982304 -2.2476404 -0.30815855 8.0166926e-39
3.8271408 -2.2510598 -0.29103014 4.3285157e-39
3.8504562 -2.26177 -0.29341343 4.2348795e-39
3.8920262 -2.263577 -0.30259639 6.263182e-39
3.9444768 -2.2614791 -0.30249941 6.1713451e-39
3.9775469 -2.260112 -0.30018911 5.6181727e-39
4.0092173 -2.2641709 -0.29691702 5.250109e-39
4.046082 -2.2604468 -0.29482451 5.617814e-39
4.0916042 -2.2722874 -0.29404378 5.3430333e-39
3.7981238 -2.2332857 -0.30816904 9.2120016e-39
3.8026192 -2.2284024 -0.30805406 9.2120016e-39
3.8588257 -2.2168951 -0.29727295 6.4482921e-39
3.9097166 -2.2195339 -0.30532405 7.9234236e-39
3.9492519 -2.2205036 -0.30236199 7.2769724e-39
3.981087 -2.2202237 -0.29788959 6.447569e-39
4.0036154 -2.2175012 -0.29270941 6.3557391e-39
4.0485392 -2.2235546 -0.29161707 5.7100166e-39
3.8281035 -2.1642261 -0.28966552 5.7118074e-39
3.8707068 -2.1752331 -0.30136165 8.4744407e-39
3.9096067 -2.1802142 -0.30464855 9.4885913e-39
3.9470708 -2.1774912 -0.30141607 9.119443e-39
3.9823523 -2.1774147 -0.29828843 8.5666322e-39
4.0039659 -2.178741 -0.29576707 8.3829654e-39
4.0478339 -2.1730742 -0.29951245 1.0323411e-38
4.0960927 -2.1745994 -0.30154362 8.199314e-39
3.8298526 -2.1353588 -0.30024788 1.0042128e-38
3.8674223 -2.1429758 -0.30406091 1.1056277e-38
3.905828 -2.1399131 -0.30652386 1.2070069e-38
3.94661 -2.1408248 -0.30179736 1.1332502e-38
3.9800279 -2.1408529 -0.2986972 1.0319076e-38
4.0039144 -2.1377013 -0.29810208 1.0229054e-38
4.0475831 -2.1438446 -0.30180708 8.7528521e-39
3.7913907 -2.0978038 -0.30057436 1.1978588e-38
3.827358 -2.1122401 -0.30467284 1.2531769e-38
3.8613997 -2.1029339 -0.3010782 1.2161906e-38
3.9101202 -2.1040692 -0.30096728 1.2164432e-38
3.9464691 -2.1002145 -0.29971725 1.0506723e-38
3.9795775 -2.1002023 -0.30063373 1.0321973e-38
4.0023603 -2.1001253 -0.29843456 9.0287159e-39
4.0499644 -2.1060381 -0.30155009 1.0500968e-38
3.8281472 -2.0741005 -0.29682729 1.1147043e-38
3.8677835 -2.0536871 -0.28883946 8.8475673e-39
3.9083066 -2.0596702 -0.29780927 9.8581221e-39
3.9464238 -2.0583701 -0.30065063 1.1240689e-38
3.9847276 -2.0582001 -0.3001537 1.2255919e-38
4.0024385 -2.0677576 -0.29887822 1.2164802e-38
3.7990346 -2.001143 -0.28018594 8.1986106e-39
3.8337519 -2.0191298 -0.28313237 7.6515464e-39
3.8580923 -2.0200408 -0.2868847 8.6628201e-39
3.9021409 -2.0152018 -0.29388705 1.1703104e-38
3.9450774 -2.0218289 -0.30247429 1.2626139e-38
3.9880991 -2.0187643 -0.29927748 1.2903449e-38
4.0057268 -2.0139644 -0.29876924 1.2903449e-38
4.046144 -2.0112894 -0.2940332 1.2719417e-38
4.0949116 -2.0077202 -0.30435318 1.2075126e-38
3.7990193 -1.9865214 -0.28031743 7.0108574e-39
3.8572681 -1.9829893 -0.2841652 1.1516556e-38
3.9056077 -1.980328 -0.29656518 1.2903448e-38
3.947021 -1.9796172 -0.30255848 1.2811254e-38
3.9752793 -1.9802771 -0.30003452 1.2627222e-38
4.0054131 -1.9777576 -0.29635867 1.2535385e-38
4.050375 -1.9794455 -0.29939646 1.1982931e-38
4.0957327 -1.9866412 -0.30243805 1.1246087e-38
4.1365409 -1.9719144 -0.28010848 5.9023476e-39
3.846489 -1.9389949 -0.28271085 1.2811971e-38
3.8877144 -1.9475874 -0.29707205 1.2903451e-38
3.9268894 -1.9426959 -0.30218154 1.2719058e-38
3.9736109 -1.9426289 -0.29828364 1.2259157e-38
4.0100622 -1.9369928 -0.29694295 1.0785831e-38
4.047853 -1.9398024 -0.29899612 7.9292095e-39
4.0946536 -1.9320855 -0.31017777 6.633398e-39
4.137187 -1.940683 -0.30218202 1.1516164e-38
4.1966419 -1.9371607 -0.30987912 1.4192372e-38
3.9568977 -1.9031881 -0.29252061 9.2203099e-39
3.9726183 -1.8940269 -0.2993561 8.3905506e-39
4.0045176 -1.8997564 -0.29621956 6.1753205e-39
4.0493336 -1.8998325 -0.29978171 8.6602627e-39
4.0948219 -1.8988613 -0.30556449 1.3270047e-38
4.1422825 -1.8889087 -0.29581559 1.4100535e-38
4.1906157 -1.8908824 -0.2948288 1.4007972e-38
4.2386184 -1.88904 -0.30355275 1.4007974e-38
4.2447705 -1.8854206 -0.29920769 1.3916134e-38
4.2968483 -1.890841 -0.31881359 1.3824294e-38
3.9264221 -1.8660061 -0.29008481 8.75898e-39
3.9726086 -1.8619195 -0.29933846 6.2660644e-39
4.0092812 -1.8587223 -0.29557753 1.1794554e-38
4.0506611 -1.8586025 -0.30067036 1.4193087e-38
4.0974755 -1.8597491 -0.30318296 1.4100529e-38
4.1461582 -1.8601388 -0.29808167 1.4007971e-38
4.1948886 -1.8589565 -0.30029765 1.3916134e-38
4.2337918 -1.8592454 -0.30551079 1.3915777e-38
4.2455659 -1.859127 -0.30137861 1.382394e-38
4.2962399 -1.8439618 -0.31800485 1.4007244e-38
3.9754546 -1.8261436 -0.29735574 1.317821e-38
4.0138307 -1.8232472 -0.2967394 1.4285282e-38
4.0588026 -1.8238107 -0.300576 1.4008334e-38
4.1083698 -1.8188225 -0.30140644 1.3916495e-38
4.1485162 -1.8237576 -0.29891968 1.3915775e-38
4.1911159 -1.8178422 -0.30056599 1.3915775e-38
4.2103243 -1.8219992 -0.30433238 1.3915775e-38
4.2437239 -1.8255816 -0.30382997 1.382358e-38
3.9699254 -1.7903279 -0.2922506 1.4008692e-38
4.0159674 -1.7952508 -0.29887801 1.4007972e-38
4.0646911 -1.7969291 -0.30544597 1.3916497e-38
4.1117482 -1.7781694 -0.29941633 1.3640629e-38
4.1499739 -1.7785006 -0.2969839 1.382358e-38
4.1902075 -1.7799299 -0.30296239 1.3823578e-38
4.2236614 -1.7792273 -0.30036956 1.382358e-38
4.2466559 -1.7705148 -0.30780974 1.3732464e-38
4.2964439 -1.7751665 -0.30522001 1.364027e-38
4.3497233 -1.7726133 -0.30034968 1.363955e-38
4.3997149 -1.7868116 -0.29556915 1.3547714e-38
4.4061546 -1.7789686 -0.30040634 1.3547713e-38
4.1114087 -1.7415404 -0.29948983 1.3364762e-38
4.1487684 -1.7473073 -0.29624683 1.3823578e-38
4.1892796 -1.7413507 -0.29830885 1.3731744e-38
4.2079477 -1.7334486 -0.30537125 1.364063e-38
4.2482686 -1.7416626 -0.2992129 1.3548435e-38
4.3006258 -1.7391211 -0.30193076 1.3456596e-38
4.3513703 -1.7418051 -0.29820138 1.3455876e-38
4.3996658 -1.7450137 -0.30893692 1.3455877e-38
4.4056153 -1.741896 -0.30628961 1.3547353e-38
4.1111417 -1.7111647 -0.29670984 1.327113e-38
4.1588306 -1.7088983 -0.29724279 1.3640269e-38
4.1693897 -1.7021788 -0.29742306 1.3548435e-38
4.209866 -1.6991535 -0.30105087 1.3456599e-38
4.252039 -1.6990712 -0.29861173 1.3272925e-38
4.301074 -1.6986952 -0.29967546 1.3088535e-38
4.3526278 -1.7015392 -0.30224484 1.3363682e-38
4.3992281 -1.7158936 -0.31391114 1.3272921e-38
4.4062042 -1.7072301 -0.3102757 1.3364399e-38
4.1587486 -1.6571357 -0.30143392 1.3181809e-38
4.1875391 -1.6681441 -0.29654136 1.3456236e-38
4.2103038 -1.6630633 -0.30186 1.3089256e-38
4.2559009 -1.6572775 -0.29437691 1.299598e-38
4.302372 -1.6632729 -0.30459332 1.2627203e-38
4.3545561 -1.6718093 -0.30618188 1.3088178e-38
4.3662486 -1.6619427 -0.30941179 1.3456239e-38
4.1453524 -1.601907 -0.29918617 1.2166955e-38
4.195642 -1.6075133 -0.2977283 1.2442816e-38
4.2292013 -1.6142857 -0.30168089 1.2074751e-38
4.2511735 -1.6230859 -0.29861459 1.235026e-38
4.3043547 -1.6293781 -0.30602798 1.1982198e-38
4.0976911 -1.5661569 -0.31639549 6.0838592e-39
4.1493125 -1.5718038 -0.29816249 1.1613777e-38
4.1947093 -1.5793161 -0.30147782 1.124571e-38
4.215302 -1.5860331 -0.30673227 1.11528e-38
4.2461534 -1.5873569 -0.30669138 1.0600341e-38
4.0128474 -1.5237584 -0.31146753 5.3470172e-39
4.0559802 -1.5341086 -0.30870572 7.0980013e-39
4.1050835 -1.5361363 -0.30531752 8.8493525e-39
4.1477237 -1.5367111 -0.29870808 1.0692898e-38
4.194068 -1.5494269 -0.30486572 9.6791076e-39
4.2094469 -1.5532639 -0.30741811 9.9553344e-39
4.2438316 -1.5464787 -0.31502652 7.0983544e-39
3.9666846 -1.5041933 -0.30955234 5.5310399e-39
4.0109444 -1.5053768 -0.30436525 7.6508164e-39
4.0575085 -1.49648 -0.30017412 9.1262982e-39
4.1012444 -1.496833 -0.30078343 9.1262954e-39
4.14712 -1.5068879 -0.30197766 8.6653186e-39
4.1934175 -1.5013266 -0.30863276 6.6370246e-39
4.2463636 -1.4939311 -0.31300253 6.3554e-39
3.9978588 -1.4451629 -0.29027364 9.4028837e-39
4.0072851 -1.448581 -0.29378951 8.5734817e-39
4.0525599 -1.4577893 -0.29732621 8.7571527e-39
4.0989747 -1.4650813 -0.303186 8.1114246e-39
4.1458015 -1.4656417 -0.29777294 8.756801e-39
4.1911659 -1.4703196 -0.30941087 7.2834744e-39
3.9552839 -1.4122307 -0.29684889 5.8069038e-39
3.9841461 -1.4143313 -0.29891965 7.0976356e-39
4.0065103 -1.4212735 -0.29547527 8.0188702e-39
4.0501351 -1.423344 -0.30127537 7.7430036e-39
4.097815 -1.4229677 -0.3049373 7.1909074e-39
3.8693693 -1.3610852 -0.28392977 6.2635589e-39
3.9101892 -1.3767991 -0.29119569 6.364032e-39
3.9504859 -1.3761858 -0.2975677 6.1763939e-39
3.9845893 -1.380958 -0.2983965 6.7288531e-39
4.0035429 -1.3772236 -0.29758438 6.4522634e-39
4.0493879 -1.374759 -0.30067113 7.2805765e-39
4.0976315 -1.3736368 -0.30212966 8.6627963e-39
4.1458793 -1.3684336 -0.30110368 1.0412351e-38
4.197464 -1.362359 -0.30485296 1.2628287e-38
3.8245244 -1.3413897 -0.28203174 6.7306593e-39
3.8692744 -1.3317294 -0.2839219 6.1717178e-39
3.9130964 -1.3347875 -0.30461934 5.8976434e-39
3.9441104 -1.3424383 -0.30061975 6.9121611e-39
3.9835515 -1.3390079 -0.29752576 8.1096197e-39
4.003674 -1.3391687 -0.29713356 8.9393804e-39
4.0490737 -1.3380679 -0.30074486 1.0229402e-38
4.0963039 -1.3380535 -0.30535153 1.1613056e-38
4.145463 -1.3396285 -0.30334187 1.262793e-38
4.1963701 -1.3375362 -0.30470425 1.2627931e-38
3.8780053 -1.3079368 -0.3013441 6.6344924e-39
3.9188766 -1.3056158 -0.30392396 8.6638655e-39
3.9398205 -1.305818 -0.30102587 9.4925513e-39
3.9769523 -1.3005391 -0.29804683 1.0782937e-38
4.0058775 -1.3011729 -0.29535383 1.1797088e-38
4.0497584 -1.3020502 -0.29890969 1.2535736e-38
4.0966587 -1.2991422 -0.30490994 1.2719768e-38
4.1454144 -1.3035542 -0.30311325 1.2811964e-38
4.1965342 -1.3068788 -0.30488902 1.2813044e-38
3.9122419 -1.2516118 -0.30191424 1.2535736e-38
3.9397731 -1.2599722 -0.30023721 1.2350984e-38
3.9828539 -1.2600359 -0.29533914 1.2719768e-38
4.006103 -1.2610043 -0.29561308 1.2811605e-38
4.0496941 -1.2577897 -0.29842943 1.2904521e-38
4.097331 -1.2572159 -0.30333319 1.2168041e-38
4.145947 -1.2560253 -0.29993433 1.0509238e-38
4.1952605 -1.253405 -0.29716948 8.7568024e-39
4.2465968 -1.2542447 -0.30544212 8.1110714e-39
4.3004375 -1.2664995 -0.30652598 8.2029069e-39
3.8752348 -1.2196145 -0.3081913 1.2627931e-38
3.9157014 -1.2259459 -0.3179372 1.2903442e-38
3.9372478 -1.2184154 -0.30388284 1.2904162e-38
3.9747982 -1.2190317 -0.29816791 1.2259872e-38
4.0057945 -1.2208849 -0.29502875 1.179962e-38
4.0497746 -1.2229058 -0.29870126 1.0047903e-38
4.0981107 -1.2230797 -0.30239245 8.7564409e-39
4.1458578 -1.2235411 -0.29915762 8.0188744e-39
4.1950941 -1.227724 -0.30112928 7.834123e-39
4.2225051 -1.2154397 -0.30441889 8.4776833e-39
4.2462111 -1.2204975 -0.30740806 7.6479283e-39
4.2974181 -1.2127881 -0.3015852 8.2000133e-39
3.8778052 -1.1843462 -0.30178863 1.2904521e-38
3.9185476 -1.1827701 -0.29430744 1.1338274e-38
3.9340479 -1.1870691 -0.29440534 1.1062059e-38
3.969698 -1.1884649 -0.29851517 1.0231937e-38
4.0052896 -1.1917645 -0.29411232 8.3872954e-39
4.0526233 -1.1842418 -0.2958928 7.8344817e-39
4.1011233 -1.1883672 -0.29908085 7.6493716e-39
4.1453047 -1.1867255 -0.29726961 7.2798646e-39
4.1931453 -1.189236 -0.30287442 8.0149045e-39
4.2050228 -1.1789827 -0.31013459 8.1974993e-39
4.2494273 -1.1784528 -0.28884348 8.4762414e-39
4.3052149 -1.1841186 -0.29805419 9.2148784e-39
4.0106735 -1.1509887 -0.2880016 7.4649776e-39
4.0578566 -1.147877 -0.28428707 7.1880305e-39
4.1044683 -1.1556498 -0.2876108 7.7386736e-39
4.2047896 -1.1451222 -0.28009197 9.1216038e-39
4.2559929 -1.1538212 -0.28249568 9.2148756e-39
3.1569188 -0.88392472 -0.31476849 6.7299293e-39
3.1684754 -0.8849979 -0.31626782 6.6377322e-39
3.3114307 -0.88383877 -0.28194025 6.3597146e-39
3.0738647 -0.85420501 -0.28851771 8.848984e-39
3.1054406 -0.8553319 -0.29529604 8.0192261e-39
3.1398513 -0.85809255 -0.30469009 6.9125212e-39
3.1747315 -0.85006261 -0.30578899 6.54338e-39
3.2192435 -0.8495456 -0.30527174 6.8199683e-39
3.2548594 -0.85051441 -0.31198916 6.2657197e-39
3.2914619 -0.85048431 -0.30525041 5.8954953e-39
3.0761971 -0.80935413 -0.28582445 7.3735008e-39
3.1051753 -0.82101339 -0.2908875 7.3734994e-39
3.1382518 -0.83297306 -0.29782647 6.9128814e-39
3.1838622 -0.82833493 -0.29828158 7.0036421e-39
3.220274 -0.8320027 -0.30774152 6.3571951e-39
3.25017 -0.8328225 -0.31266987 5.8947764e-39
3.2874455 -0.83280897 -0.31816477 5.8944219e-39
3.0825548 -0.79743659 -0.28626555 7.2798758e-39
3.1576219 -0.76885593 -0.28188288 5.0729443e-39
3.1784818 -0.7678315 -0.28413683 4.8878369e-39
3.2126985 -0.77380633 -0.2895692 4.4290266e-39
3.2685149 -0.76525354 -0.30907845 2.1226967e-39
3.3082659 -0.76361823 -0.31079197 2.5854629e-39
3.341902 -0.77004927 -0.31010652 2.6765754e-39
3.3740165 -0.76324838 -0.31429443 2.6830115e-39
3.4076295 -0.77413225 -0.31700379 2.4050065e-39
3.4426544 -0.76773399 -0.31957635 2.1233904e-39
3.1533175 -0.74243027 -0.28139493 3.3223203e-39
3.1824281 -0.73878849 -0.28402179 3.5034662e-39
3.2203393 -0.73575157 -0.29040211 3.1335878e-39
3.2606926 -0.73921174 -0.29643041 2.9506287e-39
3.3017879 -0.74092221 -0.30218807 2.8605827e-39
3.3435707 -0.74454331 -0.3072792 2.5854293e-39
3.3751912 -0.73830825 -0.3114934 3.2239702e-39
3.4076128 -0.74755275 -0.31539205 3.0395789e-39
3.4491556 -0.74122906 -0.31111065 2.8562667e-39
3.1893585 -0.70198917 -0.2841875 3.3172364e-39
3.2202153 -0.70253021 -0.28716564 3.5016249e-39
3.2642879 -0.70026314 -0.29330617 3.6860175e-39
3.3040459 -0.69893825 -0.30007973 3.5931044e-39
3.3439527 -0.70183665 -0.30491555 3.5927415e-39
3.3746502 -0.70723689 -0.30723041 3.409432e-39
3.1584611 -0.66853517 -0.28201818 3.6867322e-39
3.187283 -0.6684823 -0.2845889 3.3183098e-39
3.2203405 -0.66361672 -0.2914857 2.5803902e-39
3.2639825 -0.65525287 -0.30044681 1.6580808e-39
3.3005657 -0.66331726 -0.30259973 1.5658866e-39
3.3428104 -0.67167395 -0.30235702 1.3818554e-39
3.3749352 -0.67314243 -0.30612892 1.3818611e-39
3.1899889 -0.62224793 -0.30564141 4.5121586e-39
3.2204046 -0.628977 -0.29265785 1.5658824e-39
3.2645972 -0.62676781 -0.29752183 1.8424693e-39
3.3046927 -0.62110984 -0.3050788 1.7506338e-39
3.3430357 -0.62306887 -0.31060979 4.6098235e-40
3.2191236 -0.59367758 -0.28674695 1.0148694e-39
3.2628601 -0.58174855 -0.30389246 1.3807835e-39
3.3007197 -0.57350785 -0.30943871 2.2116175e-39
3.3430815 -0.57709289 -0.30979496 2.8573457e-39
3.2194405 -0.52625906 -0.30452299 2.0236249e-39
3.2693765 -0.53526789 -0.30686846 2.0243438e-39
3.303931 -0.54212534 -0.30696625 1.8410371e-39
3.3434782 -0.54091966 -0.30149719 2.4849632e-39
3.3772683 -0.52699965 -0.28838915 4.1412419e-39
3.4132888 -0.5251087 -0.30044651 2.4864051e-39
3.4562092 -0.52738899 -0.29881454 3.1317703e-39
3.1895123 -0.51223838 -0.30509877 2.2987657e-39
3.2208283 -0.51314497 -0.30816886 2.2072903e-39
3.2595677 -0.51322681 -0.30733138 2.3924004e-39
3.3092558 -0.5007031 -0.3027766 3.9593674e-39
3.3440223 -0.49645153 -0.29750472 4.4214246e-39
3.3756344 -0.49624273 -0.29819089 4.0537238e-39
3.4087434 -0.48917374 -0.2970404 2.8569911e-39
3.4451258 -0.50091702 -0.29219234 3.5027207e-39
3.2716877 -0.46970126 -0.31773135 3.2236241e-39
3.3076494 -0.46279007 -0.31595951 2.5796826e-39
3.3437912 -0.4593862 -0.30719021 2.5800371e-39
3.3757744 -0.45885557 -0.30374545 2.6718712e-39
3.4096048 -0.46289021 -0.30076742 2.4871198e-39
3.4432168 -0.46373683 -0.29935613 2.5782336e-39
3.2784872 -0.40450892 -0.28028008 1.5644474e-39
3.3117955 -0.41238406 -0.29427218 1.6573605e-39
3.3438876 -0.42756808 -0.29805508 3.0402908e-39
3.3774667 -0.43581277 -0.31222579 3.9611695e-39
3.3115773 -0.39350167 -0.30054268 2.4849632e-39
3.3439345 -0.38288879 -0.29880515 1.9343146e-39
3.3753769 -0.37454167 -0.30116054 1.5669698e-39
3.4097149 -0.36864084 -0.30187806 9.2123743e-40
3.4441915 -0.36998186 -0.29611468 7.3648604e-40
1.783831 -0.32619354 -0.30029091 5.8979966e-39
1.8047342 -0.32480717 -0.30475697 7.006142e-39
3.3432057 -0.35443431 -0.29458946 9.2123463e-40
3.3779738 -0.35473579 -0.30467737 1.1056245e-39
3.4095747 -0.35236865 -0.30799276 1.1971013e-39
3.442991 -0.35437486 -0.30605006 1.2882207e-39
1.7724388 -0.31822595 -0.30369425 4.880972e-39
1.8302506 -0.29915828 -0.28545171 1.0693257e-38
1.8528302 -0.29757071 -0.28962272 8.9433432e-39
1.8222805 -0.25168324 -0.28713104 5.4373758e-39
3.9106095 -0.24964964 -0.31867933 1.8446245e-39
3.9544055 -0.24103536 -0.30771312 2.1186988e-39
4.0948219 -0.24478494 -0.30157536 2.2101742e-39
3.8216741 -0.23213732 -0.28325468 2.3941955e-39
3.8656533 -0.22286668 -0.29455608 2.57967e-39
3.9092052 -0.22208366 -0.30361423 2.3045292e-39
3.9540086 -0.21357729 -0.29858407 2.4882016e-39
3.9990525 -0.22106324 -0.30097494 2.4882044e-39
4.001689 -0.21618733 -0.30192339 2.488203e-39
4.0479875 -0.2226775 -0.31592655 2.3967347e-39
1.7599176 -0.16895102 -0.30798328 7.0050672e-39
1.7803665 -0.17264286 -0.29840827 5.5299399e-39
1.8001562 -0.1656331 -0.28915593 3.2254079e-39
3.9106443 -0.19318336 -0.29166937 2.3048823e-39
3.9541149 -0.17891711 -0.29962268 2.1187016e-39
3.9991226 -0.19251451 -0.30910629 2.2119791e-39
4.0019903 -0.18978241 -0.31183729 2.3960102e-39
1.7430285 -0.1456387 -0.29269662 4.8838362e-39
1.7898198 -0.15585023 -0.2907421 3.7785789e-39
1.805599 -0.15455492 -0.29082072 2.5793365e-39
3.9089074 -0.12406809 -0.30792597 1.0321942e-38
3.954195 -0.1405057 -0.30004609 7.556076e-39
3.8658309 -0.087228149 -0.29004389 1.1244623e-38
3.9088004 -0.099902846 -0.30425379 1.0875839e-38
3.9540701 -0.11417823 -0.29891092 1.0691806e-38
3.7803867 -0.044128727 -0.30260605 1.0967677e-38
3.8226795 -0.052441061 -0.29658979 1.1060233e-38
3.8658619 -0.068379402 -0.29966667 1.0968396e-38
3.909235 -0.073775314 -0.3047668 1.0968036e-38
3.7807846 -0.012318983 -0.29857749 1.1613765e-38
3.8227253 -0.024551706 -0.29679912 1.1429374e-38
3.6997707 0.036736317 -0.31634337 1.2351691e-38
3.7395706 0.030223049 -0.30403745 1.2166941e-38
3.7806013 0.01293937 -0.29721841 1.1982189e-38
3.8222299 0.010289685 -0.29463035 1.2074385e-38
3.6995394 0.063934878 -0.30797845 1.2904144e-38
3.7393219 0.054754 -0.29933831 1.2719753e-38
3.7799037 0.040287893 -0.29434809 1.2627203e-38
3.6604242 0.10551478 -0.2886982 1.3180372e-38
3.6992664 0.098135248 -0.30307141 1.3180372e-38
3.7383037 0.083465971 -0.3040742 1.3180012e-38
3.6222997 0.15198784 -0.29795668 1.3180732e-38
3.660161 0.14190961 -0.29790473 1.3180732e-38
3.6991 0.12979206 -0.30217418 1.3180732e-38
3.5842528 0.18419735 -0.30314052 1.3180732e-38
3.6218731 0.17481607 -0.29656795 1.3364764e-38
3.6590917 0.16511318 -0.29525414 1.3364765e-38
3.5473361 0.23016854 -0.29027888 1.1891438e-38
3.5838888 0.21790145 -0.30283698 1.2719757e-38
3.6208978 0.20479819 -0.30103162 1.3364764e-38
3.546586 0.25822166 -0.29732472 1.3548435e-38
3.5838897 0.25894314 -0.30398482 1.3548793e-38
3.439045 0.31169051 -0.29768449 1.4286363e-38
3.4689813 0.31307405 -0.29643434 1.4378198e-38
3.510602 0.3036679 -0.29647249 1.4193804e-38
3.5465481 0.29689205 -0.30457598 1.3917574e-38
3.583601 0.28474164 -0.30406323 1.3640989e-38
3.4384539 0.34310567 -0.30445877 1.4378197e-38
3.4623542 0.33920187 -0.29706103 1.4286361e-38
3.5107951 0.33033884 -0.29987249 1.4378557e-38
3.4124722 0.38201728 -0.30218035 1.4101968e-38
3.4519081 0.370271 -0.29568335 1.4194164e-38
3.3739278 0.43110383 -0.31253722 1.3917214e-38
3.407141 0.42061853 -0.30269507 1.4009411e-38
3.4411695 0.41917437 -0.31132424 1.4009413e-38
2.9433694 0.46158084 -0.28927818 1.3088174e-38
2.9785526 0.47142789 -0.2975966 1.3087815e-38
3.0193801 0.47319597 -0.30980241 1.3180009e-38
3.0463002 0.47750923 -0.31716281 1.3088172e-38
3.3415551 0.47697198 -0.30283055 1.3640627e-38
3.3741124 0.46033376 -0.30355617 1.3733183e-38
3.4060655 0.46058756 -0.3031916 1.3733183e-38
3.4404001 0.44251707 -0.28095296 1.3826096e-38
2.9139078 0.51281404 -0.2904368 8.1114218e-39
2.9431369 0.50330096 -0.2904284 1.1337542e-38
2.9840887 0.49945423 -0.2992644 1.2443525e-38
3.0187516 0.50265026 -0.30045903 1.2719752e-38
3.0471516 0.50537878 -0.30280152 1.2811587e-38
3.2781456 0.50480986 -0.30485982 1.3272564e-38
3.3104942 0.50697696 -0.29841611 1.3364401e-38
3.3409574 0.50713235 -0.29928035 1.3456596e-38
3.3729722 0.49231026 -0.30039793 1.3548793e-38
3.4048131 0.48625565 -0.30197197 1.3640988e-38
2.9170887 0.54730886 -0.28418189 5.898707e-39
2.9419386 0.54280752 -0.29224724 5.8980008e-39
2.9765491 0.53750056 -0.29568148 7.0969069e-39
3.0182323 0.53279179 -0.30386922 9.3099579e-39
3.0480368 0.53116167 -0.31062186 1.0785087e-38
3.3094974 0.52221376 -0.28375173 1.3180371e-38
3.3398914 0.52554798 -0.29169744 1.3272206e-38
3.372232 0.52866656 -0.29336551 1.3272565e-38
3.4047933 0.54197955 -0.30245835 1.3180372e-38
2.8246465 0.59851062 -0.28403533 7.0036113e-39
2.8632755 0.59232593 -0.29264322 5.0671485e-39
2.9133158 0.58526903 -0.28721786 5.8987014e-39
2.9398923 0.58167875 -0.28830925 6.2671224e-39
2.9726031 0.57375443 -0.2964364 5.1597085e-39
3.0174611 0.57414782 -0.30829823 4.3296031e-39
3.045722 0.57913142 -0.31570235 4.3285241e-39
2.7518287 0.63334322 -0.30315164 4.5150677e-39
2.7981453 0.62665999 -0.3031798 5.6224957e-39
2.8216457 0.63129854 -0.28951597 6.7273957e-39
2.856092 0.62306207 -0.29288521 6.6344784e-39
2.9061577 0.6206975 -0.29474872 6.1735017e-39
2.9404109 0.62079239 -0.30091447 5.7128808e-39
2.9703715 0.6207332 -0.30301788 5.0667912e-39
3.0178332 0.63222808 -0.31364986 4.3270737e-39
3.0512602 0.63039929 -0.31074524 4.8816894e-39
2.7539537 0.65157229 -0.30678973 4.3306765e-39
2.7891104 0.66028339 -0.30307862 4.6994576e-39
2.8201356 0.66463029 -0.29568353 5.6221229e-39
2.8550291 0.65946633 -0.29179457 6.4515221e-39
2.90429 0.65335929 -0.29424897 5.9894747e-39
2.9394794 0.648552 -0.30484998 6.358616e-39
2.9699075 0.65214074 -0.30917615 6.3593349e-39
3.0173986 0.65925831 -0.31581876 5.9901936e-39
3.0466976 0.67513001 -0.31842703 6.1731499e-39
2.7974558 0.70093149 -0.2890912 5.7125305e-39
2.8223722 0.70232928 -0.29642349 5.6206922e-39
2.8489788 0.69869226 -0.30216485 5.2529887e-39
2.893141 0.69486433 -0.29304785 3.4994879e-39
2.7467837 0.75239933 -0.29919866 4.6983772e-39
2.7896125 0.75029784 -0.29144153 5.0671569e-39
2.8200705 0.74040228 -0.29289445 5.619972e-39
2.8475816 0.74050212 -0.3076326 5.3437466e-39
2.8931417 0.744717 -0.31440237 5.1597197e-39
2.4289448 0.79085779 -0.29792416 4.3292359e-39
2.4533267 0.79501241 -0.30222118 4.2370417e-39
2.6689844 0.79811805 -0.29909632 3.0395691e-39
2.7115521 0.78535426 -0.31405208 5.2500964e-39
2.7530522 0.78032809 -0.30498102 4.9746067e-39
2.7866335 0.78167892 -0.29718101 5.5281365e-39
2.8160117 0.77580088 -0.30580217 5.1593539e-39
2.849395 0.7709074 -0.31319273 4.8834887e-39
2.8910339 0.76746869 -0.31404614 5.5295798e-39
2.3859692 0.82695407 -0.30987233 8.29685e-39
2.4287181 0.82110971 -0.29876423 2.4889443e-39
2.4608424 0.82029486 -0.29996634 3.3172532e-39
2.4941301 0.82386625 -0.3016831 3.9611779e-39
2.5310693 0.82260174 -0.30096459 4.7902113e-39
2.5763428 0.8338635 -0.30871016 4.6983828e-39
2.6681211 0.81343359 -0.29596156 1.7491974e-39
2.704293 0.82510203 -0.29329467 1.9339474e-39
2.7447441 0.81893653 -0.29970196 3.0395705e-39
2.7795498 0.81326658 -0.29902253 3.9600919e-39
2.8171852 0.80958331 -0.30333462 5.3448256e-39
2.8409462 0.80466861 -0.31745407 5.7114571e-39
2.3580852 0.85878813 -0.30629158 9.306351e-39
2.3878632 0.8684572 -0.30225059 4.8827741e-39
2.4247191 0.86850917 -0.30001664 4.3303247e-39
2.4594657 0.8604061 -0.29852691 2.4885842e-39
2.4957838 0.86091363 -0.30155912 2.1205247e-39
2.5299175 0.87111276 -0.30658883 1.9365006e-39
2.6639161 0.85367084 -0.31718525 5.1579106e-39
2.7107151 0.84662503 -0.29875264 1.4733322e-39
2.7395144 0.86254603 -0.30118918 2.578598e-39
2.7717726 0.85892248 -0.30620199 1.6573661e-39
2.310077 0.89865685 -0.29509765 1.9350545e-39
2.3508651 0.90857136 -0.29798681 2.8555632e-39
2.3829145 0.9050079 -0.29739556 2.5797022e-39
2.4205105 0.89831769 -0.30052945 2.8562849e-39
2.4508429 0.89238006 -0.2960645 2.3960298e-39
2.4993515 0.88690883 -0.30469713 2.2112812e-39
2.5271182 0.89380819 -0.30749679 1.8443036e-39
2.7131422 0.88274413 -0.30039155 4.7902071e-39
2.7472572 0.88837349 -0.30123788 4.8827628e-39
2.7738512 0.89842701 -0.29603651 4.5139859e-39
2.8101983 0.91272014 -0.29005152 4.052649e-39
2.3049197 0.94828343 -0.31154475 5.9858748e-39
2.3526378 0.93786073 -0.30780041 3.4987648e-39
2.3794971 0.93597597 -0.30461401 2.5789791e-39
2.4204056 0.93894935 -0.29634124 2.8559247e-39
2.4463549 0.94457096 -0.28992632 3.3169015e-39
2.4978275 0.94153249 -0.28165871 4.0544539e-39
2.819555 0.92204762 -0.28852606 3.2236128e-39
2.1438808 0.97526681 -0.3061325 7.0021889e-39
2.1864409 0.99537915 -0.3015174 2.8548471e-39
2.2032027 0.99411517 -0.30246523 1.8439518e-39
2.2431805 0.96858954 -0.29267931 2.21274e-39
2.3051312 0.96841228 -0.3098644 3.7764349e-39
2.3498883 0.98221618 -0.30134612 2.6711733e-39
2.3765986 0.98273623 -0.29957652 2.7644494e-39
2.4207082 0.97725618 -0.30181178 2.8570079e-39
2.4544084 0.97894877 -0.29246679 3.8700697e-39
2.4929645 0.98935574 -0.29195216 4.4221602e-39
2.1455891 1.0361515 -0.29604563 1.0320855e-38
2.1792891 1.0293556 -0.30060676 5.1604455e-39
2.2188356 1.0262351 -0.29961455 2.3953137e-39
2.2542336 1.0315526 -0.29964471 2.5800623e-39
2.3022842 1.0283291 -0.30421394 2.3963941e-39
2.3468688 1.0227731 -0.30986872 2.120173e-39
2.379385 1.0158633 -0.30385473 2.6726167e-39
2.411401 1.0244269 -0.30394411 2.9488392e-39
2.4478178 1.0100236 -0.29592535 3.5927555e-39
2.5018768 1.0053035 -0.29162493 4.6994548e-39
2.5281661 1.0040324 -0.28478104 6.820299e-39
2.0735033 1.0738286 -0.29532668 8.2007279e-39
2.1081462 1.066425 -0.30302158 9.6762083e-39
2.1367612 1.0596662 -0.29953703 9.3996228e-39
2.1701124 1.0473167 -0.30363417 1.0505609e-38
2.2171755 1.0445036 -0.30106369 2.856645e-39
2.252564 1.0450528 -0.29788861 2.6718936e-39
2.3022864 1.0492601 -0.29570788 3.2243359e-39
2.3493505 1.0528573 -0.30191684 3.0403132e-39
2.375994 1.0615945 -0.30184269 3.2247003e-39
2.4227643 1.0548348 -0.30222762 3.3165344e-39
2.4528732 1.0645056 -0.30382746 3.4087258e-39
2.4884672 1.0745234 -0.30989766 3.2246947e-39
2.0387042 1.1154404 -0.28285778 1.1337892e-38
2.0692954 1.1055359 -0.29845452 9.3992599e-39
2.0967979 1.092598 -0.30060837 9.3999774e-39
2.13026 1.0862579 -0.2954917 9.3070685e-39
2.387897 1.0848389 -0.30358079 3.4087258e-39
2.4150078 1.0930296 -0.3055194 3.5005613e-39
2.4640617 1.0913799 -0.29830322 3.9604478e-39
2.4976096 1.0913516 -0.30615166 3.6845882e-39
2.5295506 1.105516 -0.30308592 4.144116e-39
2.0373628 1.1259624 -0.29166633 9.5847386e-39
2.0617969 1.1305538 -0.30131501 9.7683969e-39
2.0821621 1.1277059 -0.30514386 1.1333922e-38
2.477278 1.1243236 -0.31512883 3.501992e-39
2.5112352 1.1218996 -0.28189406 3.8682396e-39
4.6355014 -2.8058741 -0.25328267 6.1709891e-39
4.5785942 -2.7648537 -0.25938568 5.9873195e-39
4.6360631 -2.779253 -0.25288197 6.2639064e-39
4.6430817 -2.7819288 -0.26293063 5.9873237e-39
4.5133562 -2.7313955 -0.2629776 5.8954854e-39
4.5248413 -2.7246895 -0.25863785 5.8951253e-39
4.5806031 -2.7396507 -0.25932717 6.079518e-39
4.643116 -2.7466524 -0.2717461 6.3550231e-39
4.4700594 -2.6873071 -0.26167753 5.8951253e-39
4.5142503 -2.697412 -0.26164809 6.0798753e-39
4.5255189 -2.6996844 -0.25962067 6.0795166e-39
4.5799627 -2.7122924 -0.26271933 6.263189e-39
4.4190722 -2.6490667 -0.25466543 5.8951253e-39
4.4692483 -2.6610096 -0.25968546 5.9876797e-39
4.5049677 -2.667011 -0.26677218 5.9876797e-39
4.5228992 -2.6669245 -0.25990301 6.1717122e-39
4.3572264 -2.6041188 -0.26428708 5.8958428e-39
4.3751802 -2.6090374 -0.25888792 5.8032898e-39
4.4201488 -2.616327 -0.25910503 5.9876811e-39
4.4685073 -2.6256967 -0.26181138 5.8958442e-39
4.4878311 -2.6079543 -0.27819285 5.8969218e-39
4.5229006 -2.6397073 -0.26698703 4.9756871e-39
4.3145442 -2.5657313 -0.26882005 5.7114557e-39
4.3533673 -2.5755041 -0.26703912 5.9876797e-39
4.3767252 -2.5792067 -0.26215303 5.8958442e-39
4.4148402 -2.5804484 -0.25663289 5.5281421e-39
4.4740081 -2.5987155 -0.26474375 4.9764088e-39
4.2533016 -2.5210278 -0.27940813 4.7023232e-39
4.3105478 -2.5348246 -0.26875272 5.8958456e-39
4.354991 -2.5396862 -0.26147395 4.8834957e-39
4.3741989 -2.5409319 -0.26042223 5.6203377e-39
4.4158692 -2.5547869 -0.25511295 3.9608262e-39
4.1942139 -2.4908531 -0.27816129 4.7019645e-39
4.2113328 -2.4876478 -0.27773565 4.9771123e-39
4.2579994 -2.4935844 -0.26721695 5.8047247e-39
4.3047276 -2.4999158 -0.25886369 4.4225218e-39
4.3277483 -2.5010455 -0.26162094 4.8838531e-39
4.3747768 -2.5181139 -0.25822204 4.4239567e-39
4.1411228 -2.4485886 -0.27580693 4.4257364e-39
4.1953502 -2.4538722 -0.266608 4.7005352e-39
4.2206635 -2.4585927 -0.26592577 4.5157866e-39
4.2519026 -2.4624906 -0.25415528 3.9615408e-39
4.2986498 -2.4613702 -0.25198644 3.8704298e-39
4.326273 -2.4765732 -0.25282893 3.7760664e-39
4.0971274 -2.4092474 -0.27203524 4.4257364e-39
4.144877 -2.4170318 -0.2579577 4.0544525e-39
4.1912975 -2.4160814 -0.25006875 3.9615422e-39
4.2119999 -2.4221082 -0.24957934 3.8689907e-39
4.2449913 -2.418644 -0.25416422 4.1452188e-39
4.292789 -2.4152911 -0.2402786 7.5567794e-39
3.9471302 -2.3628066 -0.27903163 2.206947e-39
3.9984577 -2.3790765 -0.27806741 2.1151087e-39
4.0111089 -2.3739178 -0.27527013 2.7622732e-39
4.0508757 -2.371423 -0.26769346 4.1484334e-39
4.0963073 -2.3734529 -0.25538927 3.8689865e-39
4.1464553 -2.3771656 -0.2517181 3.9619052e-39
4.1880994 -2.382251 -0.25612509 4.0533805e-39
4.205863 -2.3858123 -0.25876039 4.0540966e-39
4.2485271 -2.3792589 -0.24915245 4.6029698e-39
3.9129472 -2.3291957 -0.27397102 2.2991412e-39
3.9537082 -2.3367691 -0.2759454 1.932158e-39
3.9795063 -2.3358531 -0.27133575 2.762276e-39
4.0094285 -2.3331082 -0.26444739 3.6856658e-39
4.0521188 -2.3373263 -0.25853831 3.8686291e-39
4.1010604 -2.3380289 -0.25620225 4.0540994e-39
4.1453428 -2.3467581 -0.25769451 4.1459349e-39
4.1713681 -2.3469613 -0.25325719 4.1459363e-39
3.8283989 -2.2929573 -0.26820147 2.2991482e-39
3.870172 -2.2977276 -0.27050936 2.1151115e-39
3.9096725 -2.2973423 -0.26995537 2.3012964e-39
3.9526188 -2.2973936 -0.26659814 3.3147295e-39
3.9741969 -2.2965875 -0.26603466 3.4072852e-39
4.0105829 -2.3021393 -0.2615107 4.0526575e-39
4.0542297 -2.3033459 -0.26027238 4.1462922e-39
4.100318 -2.3075438 -0.25540391 4.3299674e-39
4.1318965 -2.3089237 -0.25081474 4.4214456e-39
4.1921597 -2.3086147 -0.25590539 6.6337679e-39
3.8172638 -2.2486689 -0.26837307 2.4856863e-39
3.8621929 -2.2643535 -0.26228604 2.8555464e-39
3.9033561 -2.2637713 -0.26210877 3.315091e-39
3.9425113 -2.2643492 -0.26968789 3.8679005e-39
3.977464 -2.2617939 -0.26635253 4.4214372e-39
4.0106354 -2.2571588 -0.25998712 4.3303247e-39
4.0495324 -2.2581148 -0.26127103 4.7913029e-39
4.0927792 -2.2623179 -0.25433129 6.0809613e-39
4.1460114 -2.2634423 -0.24394062 8.8489602e-39
3.8111427 -2.2299111 -0.26582164 2.761913e-39
3.8575008 -2.2206278 -0.26486728 3.5920338e-39
3.9097595 -2.2167182 -0.27054927 4.2381249e-39
3.9534237 -2.2170904 -0.2672385 4.5147132e-39
3.9750533 -2.2158818 -0.26086304 4.6069102e-39
4.0090008 -2.2173476 -0.25882855 5.1597281e-39
4.0495491 -2.2197981 -0.25803888 5.3434061e-39
4.0967293 -2.2125394 -0.25120008 8.6602795e-39
4.1451702 -2.2224667 -0.25218907 1.0136135e-38
4.1624184 -2.2054079 -0.25396904 1.0597481e-38
3.8268776 -2.1667454 -0.26796529 4.1462894e-39
3.8701417 -2.1779468 -0.2677888 4.3303205e-39
3.9086292 -2.1809695 -0.26749957 4.6069102e-39
3.9512739 -2.1779902 -0.2704947 4.9760585e-39
3.9755154 -2.1807978 -0.26282617 5.1600896e-39
4.0102534 -2.1813157 -0.25863603 5.7118285e-39
4.0518689 -2.1796544 -0.25952423 8.1985853e-39
4.1021142 -2.1856024 -0.25235668 1.0505998e-38
3.788928 -2.1401811 -0.26547462 4.2381221e-39
3.8297675 -2.1475456 -0.26633492 4.4225148e-39
3.8651307 -2.1458092 -0.26804209 4.6994674e-39
3.9083943 -2.1389308 -0.27104419 5.0682583e-39
3.9521389 -2.1432748 -0.27171969 5.9884126e-39
3.9760087 -2.1405706 -0.26597771 6.9103689e-39
4.0092907 -2.138885 -0.26022112 9.2145379e-39
4.0517731 -2.1449809 -0.25849727 9.9546295e-39
4.0987387 -2.1583552 -0.24838342 1.1153183e-38
3.7884364 -2.102483 -0.27434355 5.4334199e-39
3.8005021 -2.087358 -0.27938932 6.0766299e-39
3.8690352 -2.0956018 -0.26846755 5.8965771e-39
3.9104793 -2.1024549 -0.27146387 8.1096323e-39
3.9510822 -2.0974259 -0.26670787 8.9394028e-39
3.9760418 -2.0966682 -0.26174697 9.769518e-39
4.0029802 -2.1019318 -0.25963864 9.5840575e-39
4.0486283 -2.1089244 -0.25692609 1.1152451e-38
3.8301132 -2.0530064 -0.26271942 8.5735013e-39
3.871397 -2.0591435 -0.26292503 9.6787643e-39
3.908855 -2.0559072 -0.26104018 9.1212759e-39
3.9475176 -2.0587745 -0.26181158 1.0227982e-38
3.9807053 -2.0591068 -0.25872031 1.1519437e-38
4.0024557 -2.065341 -0.25843087 1.1980773e-38
4.0474386 -2.0730555 -0.25287551 1.3178587e-38
3.7974372 -2.0029535 -0.27137318 8.2929628e-39
3.8011096 -2.0012176 -0.27848831 8.38229e-39
3.8613009 -2.0217819 -0.2625159 8.6585013e-39
3.9013529 -2.015121 -0.26267713 1.0965186e-38
3.94835 -2.0211284 -0.26064745 1.2441751e-38
3.982842 -2.0193441 -0.25918463 1.2995283e-38
4.0050554 -2.0171816 -0.2602511 1.2995283e-38
4.0458875 -2.011308 -0.25709188 1.2903441e-38
4.0916448 -2.0065799 -0.25613466 1.2534298e-38
4.141572 -2.0159724 -0.2735647 1.2629024e-38
3.7961609 -1.988932 -0.27950269 7.1023299e-39
3.8096745 -1.990491 -0.2698366 7.9270613e-39
3.8522534 -1.9875308 -0.25831795 1.0594605e-38
3.8951976 -1.9847209 -0.26163092 1.2625423e-38
3.9448552 -1.9815308 -0.26074171 1.2995283e-38
3.9688017 -1.982514 -0.26184478 1.2995283e-38
4.0062733 -1.9793322 -0.25910655 1.2903804e-38
4.0477381 -1.9799848 -0.26025531 1.2904164e-38
4.093112 -1.9778333 -0.26497847 1.2168762e-38
4.1423063 -1.9692507 -0.25968316 8.3912625e-39
4.1925182 -1.9714023 -0.24926598 1.0037798e-38
3.8403199 -1.9511709 -0.2680724 1.3270421e-38
3.8867917 -1.9527637 -0.27130243 1.3272589e-38
3.9305818 -1.9467714 -0.26026955 1.2995283e-38
3.9724295 -1.9404737 -0.26107574 1.2903804e-38
4.0061674 -1.9406749 -0.25915268 1.2720134e-38
4.0496421 -1.9395632 -0.2606335 1.1247528e-38
4.0958548 -1.9407965 -0.25791204 8.8468372e-39
4.1440048 -1.9423064 -0.25349468 1.0960473e-38
4.1935081 -1.9366868 -0.24633138 1.5022488e-38
4.2000346 -1.9330289 -0.24308042 1.5575297e-38
3.9308102 -1.9082992 -0.25259483 1.2535743e-38
3.971715 -1.8984692 -0.26097047 1.1891455e-38
4.012413 -1.8975972 -0.26228008 8.6664116e-39
4.0513434 -1.9016182 -0.2603229 9.2123659e-39
4.0962505 -1.9020808 -0.25976163 1.409836e-38
4.1466613 -1.895134 -0.25046143 1.4561513e-38
4.1931458 -1.8986404 -0.25381961 1.4007975e-38
4.23703 -1.9078964 -0.26029417 1.3916493e-38
4.2456126 -1.8980346 -0.25138921 1.4007971e-38
3.9268374 -1.8564787 -0.27434838 8.1154197e-39
3.972343 -1.8606364 -0.27455917 7.2787856e-39
4.0118027 -1.8570974 -0.26109412 1.2713992e-38
4.0500255 -1.8616366 -0.26120922 1.4838097e-38
4.1012993 -1.8584576 -0.25945383 1.4284565e-38
4.1471338 -1.8596352 -0.25905341 1.4007971e-38
4.1935225 -1.8594717 -0.26136282 1.3916135e-38
4.2295403 -1.8641521 -0.25435033 1.4007972e-38
4.2456903 -1.8532968 -0.25464302 1.3916135e-38
4.2969942 -1.863286 -0.25645262 1.4007615e-38
3.9715524 -1.8170811 -0.26639384 1.4284559e-38
4.0102825 -1.8290709 -0.26037857 1.4746263e-38
