# .PCD v0.7 - Point Cloud Data file format
VERSION 0.7
FIELDS x y z rgb
SIZE 4 4 4 4
TYPE F F F F
COUNT 1 1 1 1
WIDTH 1019
HEIGHT 1
VIEWPOINT 0 0 0 1 0 0 0
POINTS 1019
DATA ascii
3.7415943 -1.0574514 -0.56244791 8.9382986e-39
3.7824616 -1.0469774 -0.56707281 9.3063636e-39
3.8244319 -1.0436589 -0.57365024 9.5822344e-39
3.8665264 -1.0494349 -0.56517541 9.7669816e-39
3.9106157 -1.0518979 -0.57206321 9.8591759e-39
3.9559028 -1.0524534 -0.57371873 9.9513701e-39
3.999671 -1.0697348 -0.58592606 1.0043203e-38
4.0007811 -1.053527 -0.5696876 9.4914765e-39
4.048059 -1.047933 -0.56082231 9.307807e-39
4.0970201 -1.0524333 -0.5672704 9.583312e-39
4.1962423 -1.0545659 -0.56462455 9.9517344e-39
4.2465668 -1.0537567 -0.57176626 9.9517358e-39
4.2992945 -1.061252 -0.56273919 1.0412352e-38
4.3542237 -1.0554475 -0.56940776 1.022832e-38
4.4084935 -1.0564916 -0.56003928 1.0595655e-38
2.7375784 -1.0279576 -0.59746927 1.6124889e-38
2.7808964 -1.0108852 -0.59661043 1.5941929e-38
2.8253608 -1.0289024 -0.5953477 1.5941571e-38
2.8706367 -1.0297699 -0.59157801 1.5664621e-38
2.9020147 -1.0272908 -0.58855605 1.4743383e-38
2.9373944 -1.029623 -0.58662254 1.4189847e-38
2.9877856 -1.0227977 -0.58729589 1.3083139e-38
3.0225928 -1.022603 -0.58637726 1.2254463e-38
3.0604937 -1.0195595 -0.58955634 1.2162266e-38
3.1042914 -1.0166944 -0.58898056 1.1702008e-38
3.1427746 -1.0120864 -0.58564091 1.1333581e-38
3.1782384 -1.0147851 -0.58468199 1.0780405e-38
3.2192142 -1.0179358 -0.5843733 1.0042477e-38
3.2619307 -1.0212977 -0.58191079 8.2911187e-39
3.3003008 -1.0253413 -0.5796997 6.4472061e-39
3.3442478 -1.020177 -0.57838166 5.8004045e-39
3.3763146 -1.016179 -0.5789308 6.0751992e-39
3.4092402 -1.023525 -0.57458025 4.9692145e-39
3.4550023 -1.0245253 -0.57357311 5.430557e-39
3.5004938 -1.0178492 -0.56743151 6.1681235e-39
3.5507822 -1.0222151 -0.57206672 6.8142118e-39
3.5865052 -1.02026 -0.56645697 7.9227117e-39
3.6240795 -1.0220122 -0.57225627 8.2918502e-39
3.6616948 -1.0169576 -0.56632841 8.9375797e-39
3.7011535 -1.0235734 -0.5733034 9.0297753e-39
3.7408535 -1.0236721 -0.56423777 9.4903947e-39
3.7820864 -1.0149634 -0.56694067 9.9513701e-39
3.8246229 -1.0143564 -0.57310259 1.0227597e-38
3.8674867 -1.0218757 -0.56646597 1.0043206e-38
3.9105606 -1.0215826 -0.57148653 1.0043566e-38
3.9553494 -1.0131333 -0.5644483 9.7669802e-39
3.9996099 -1.0013826 -0.57077754 9.7669858e-39
4.0011411 -1.0083629 -0.5693168 9.8591773e-39
4.0477972 -1.0155317 -0.56083643 9.5829505e-39
4.0966887 -1.012538 -0.56844819 9.5829519e-39
4.1452022 -1.017462 -0.57388943 9.5833106e-39
4.1957865 -1.0207019 -0.56477749 9.8595388e-39
4.247611 -1.0231879 -0.57129776 9.8595416e-39
4.2996545 -1.0283648 -0.5625385 1.0320517e-38
4.3539972 -1.0327051 -0.56939477 1.0320161e-38
2.7141111 -0.96918678 -0.59273452 1.5941574e-38
2.7411773 -0.97307605 -0.59594667 1.5941571e-38
2.779989 -0.97598231 -0.59669447 1.5941211e-38
2.8262396 -0.98763466 -0.59549993 1.5757177e-38
2.8729329 -0.9771499 -0.59444386 1.4464636e-38
2.9013901 -0.97636151 -0.59779155 1.3819987e-38
2.9371185 -0.97738934 -0.59618729 1.3543397e-38
2.9880841 -0.9787696 -0.5933708 1.3174617e-38
3.0221477 -0.97593075 -0.58982933 1.2806195e-38
3.0655553 -0.97960073 -0.58948851 1.2254101e-38
3.1040866 -0.98298788 -0.58656895 1.1702007e-38
3.1400027 -0.98083353 -0.58701688 1.1517613e-38
3.1836834 -0.9799763 -0.58644819 1.133286e-38
3.2192059 -0.9847886 -0.58279717 1.0871879e-38
3.259016 -0.97982752 -0.5819726 1.0411258e-38
3.3048878 -0.97818363 -0.58139569 9.8584444e-39
3.34447 -0.98135662 -0.57628357 8.7506633e-39
3.3759151 -0.98259342 -0.57796776 8.9357692e-39
3.4092917 -0.9859767 -0.56968284 7.9212642e-39
3.4538372 -0.98025358 -0.56714493 8.4755169e-39
3.4968791 -0.98138589 -0.56705904 8.8450169e-39
3.549598 -0.97451097 -0.57244706 9.5825876e-39
3.5865059 -0.98486507 -0.56909961 9.4903919e-39
3.6238062 -0.97988993 -0.57257509 9.95101e-39
3.6619642 -0.98296374 -0.56461072 9.9506512e-39
3.7010369 -0.98263782 -0.56891608 1.0043208e-38
3.7408006 -0.97860259 -0.5635097 1.02276e-38
3.7823842 -0.981013 -0.56782413 1.02276e-38
3.8247609 -0.98624015 -0.57300067 1.0319435e-38
3.867399 -0.99100542 -0.56540501 1.0135401e-38
3.9095073 -0.9772588 -0.5714218 1.0043567e-38
3.9552791 -0.98068684 -0.56519508 9.8591773e-39
4.0021629 -0.97707069 -0.57028902 9.8591745e-39
4.0479627 -0.98333377 -0.56248784 9.6751475e-39
4.0968323 -0.97941816 -0.57352531 9.7673418e-39
4.1459417 -0.98486596 -0.57376313 9.4911206e-39
4.1956644 -0.98914522 -0.5647189 9.6758678e-39
4.2998123 -0.98220873 -0.56230706 1.0412352e-38
4.3529663 -0.98398423 -0.5698905 1.059603e-38
2.0721242 -0.92655963 -0.59161818 1.5203643e-38
2.0892644 -0.92259878 -0.59196579 1.594085e-38
2.3626647 -0.93792397 -0.59714019 1.6124877e-38
2.6342716 -0.95009702 -0.59487361 1.6217083e-38
2.6542692 -0.94690841 -0.59937119 1.6125249e-38
2.7056742 -0.9375391 -0.59503525 1.6033043e-38
2.7382112 -0.93133968 -0.59687346 1.5479507e-38
2.7802742 -0.93855673 -0.59663939 1.4925254e-38
2.8253465 -0.93686235 -0.59551263 1.4187329e-38
2.8725302 -0.93880421 -0.5944494 1.3635591e-38
2.8990953 -0.93907857 -0.59853381 1.3635591e-38
2.9392169 -0.94031155 -0.59706843 1.3451559e-38
2.9878469 -0.94078732 -0.59402961 1.3174975e-38
3.0223048 -0.9400748 -0.58905375 1.2990583e-38
3.0617282 -0.94108456 -0.59036648 1.2438493e-38
3.1041188 -0.93731499 -0.58764166 1.2069712e-38
3.1405172 -0.93919146 -0.58502746 1.1885679e-38
3.1811275 -0.93839467 -0.58483607 1.1885678e-38
3.2190752 -0.93672967 -0.58086652 1.1609449e-38
3.2593813 -0.9410482 -0.57813913 1.1056634e-38
3.3040483 -0.94382191 -0.57569736 1.0596015e-38
3.3444848 -0.95096308 -0.57079887 9.9510044e-39
3.376266 -0.93677706 -0.57040805 1.0227238e-38
3.409416 -0.9332273 -0.56739563 1.0135403e-38
3.4683616 -0.93309772 -0.56695932 1.02276e-38
3.5093396 -0.93189526 -0.56707048 1.0319078e-38
3.5493588 -0.94423395 -0.57240152 1.0227241e-38
3.5860467 -0.93890345 -0.56589079 1.0135405e-38
3.6242068 -0.92950386 -0.57109195 1.0043929e-38
3.6624236 -0.94154799 -0.56485921 1.0135407e-38
3.7016764 -0.94221419 -0.57274449 1.0135407e-38
3.7415161 -0.93869215 -0.56763852 1.0227601e-38
3.7822881 -0.94508582 -0.56696397 1.0227961e-38
3.8669014 -0.9292261 -0.56777197 1.0135764e-38
3.9097035 -0.93653435 -0.57187104 1.0043929e-38
3.955014 -0.9396311 -0.56495202 9.9513729e-39
3.9994295 -0.93274277 -0.56985015 1.0043208e-38
4.0018897 -0.93619144 -0.57080758 9.951733e-39
4.0476241 -0.93565935 -0.56238633 9.9510114e-39
4.097002 -0.94092852 -0.56814319 9.95101e-39
4.1933074 -0.93635988 -0.56569928 9.4925541e-39
4.2990589 -0.93842506 -0.56251901 1.0228681e-38
4.4083309 -0.94776285 -0.56021988 1.0230121e-38
2.068326 -0.89598233 -0.59199029 1.483558e-38
2.0893986 -0.89780581 -0.59482419 1.529692e-38
2.6315815 -0.88484484 -0.59450549 1.5294761e-38
2.6572959 -0.89276868 -0.59749609 1.5294398e-38
2.7020233 -0.89863223 -0.5958795 1.5108202e-38
2.7373583 -0.89847583 -0.59722155 1.4923449e-38
2.7802634 -0.90039289 -0.59661865 1.4371714e-38
2.8236561 -0.89608508 -0.5952186 1.4279519e-38
2.870671 -0.89851838 -0.59486371 1.3359726e-38
2.8999462 -0.89987731 -0.59831452 1.3635232e-38
2.9407451 -0.89971787 -0.59675252 1.3083142e-38
2.987282 -0.90046686 -0.59245276 1.2899111e-38
3.0219254 -0.90101933 -0.59085709 1.2715081e-38
3.0634239 -0.90150589 -0.59213036 1.2623607e-38
3.1040287 -0.90159875 -0.59283632 1.2623967e-38
3.1453135 -0.89884377 -0.58568966 1.2255186e-38
3.1826661 -0.89986658 -0.58289731 1.1794567e-38
3.2192049 -0.89771891 -0.57654381 1.1148838e-38
3.2547629 -0.89994466 -0.56887573 1.0688216e-38
3.2998021 -0.89649576 -0.5712409 1.0596022e-38
3.3435817 -0.893915 -0.56655616 1.0503828e-38
3.3758857 -0.89374936 -0.5705182 1.0411992e-38
3.4091432 -0.89559346 -0.56728685 1.0320157e-38
3.4581046 -0.90158111 -0.56890917 1.0319797e-38
3.5058813 -0.89697617 -0.57012695 1.0227961e-38
3.5489874 -0.90374207 -0.57364821 1.0227961e-38
3.5859408 -0.9015922 -0.56909901 1.022796e-38
3.6241028 -0.89798737 -0.57245034 1.0411632e-38
3.6619225 -0.90281898 -0.56927776 1.0319797e-38
3.701252 -0.89543599 -0.57157183 1.0319801e-38
3.7406039 -0.89197397 -0.56755602 1.0411998e-38
3.7820406 -0.89850652 -0.56946474 1.0411641e-38
3.8238642 -0.90003252 -0.57330573 1.050348e-38
3.866796 -0.89917409 -0.56717962 1.0227609e-38
3.9100182 -0.90954643 -0.57186592 1.0227608e-38
3.9549215 -0.9032101 -0.56326151 1.004357e-38
3.9993813 -0.90689784 -0.56980765 1.0043207e-38
4.0025692 -0.90866691 -0.56878644 1.0135048e-38
4.0477495 -0.90965647 -0.56110048 9.9513715e-39
4.0945702 -0.91514671 -0.56753802 1.0226879e-38
4.2999759 -0.90546149 -0.56192625 1.0596738e-38
2.0232382 -0.84842014 -0.58838868 1.3177156e-38
2.058084 -0.86698437 -0.59542084 1.3637766e-38
2.592576 -0.85846996 -0.59563172 1.5017088e-38
2.6309917 -0.85673189 -0.59464753 1.4830889e-38
2.6539829 -0.86434108 -0.59870726 1.4830889e-38
2.7042792 -0.86180264 -0.59526992 1.501492e-38
2.7431095 -0.85609883 -0.59414333 1.4831249e-38
2.7799489 -0.85981071 -0.59654927 1.4647219e-38
2.8208859 -0.87139964 -0.59463888 1.4095489e-38
2.8701115 -0.86560339 -0.5941751 1.3634874e-38
2.9004495 -0.86735529 -0.5974555 1.3267533e-38
2.9401922 -0.8648833 -0.59619009 1.2900194e-38
2.9875798 -0.86338186 -0.59432238 1.2808358e-38
3.022043 -0.86111671 -0.59069282 1.2532132e-38
3.0549603 -0.86100066 -0.59421784 1.2255906e-38
3.1037819 -0.85838646 -0.59163558 1.1978958e-38
3.1426623 -0.86166102 -0.58464348 1.170237e-38
3.1854568 -0.8640216 -0.58264089 1.1517618e-38
3.2190149 -0.86170983 -0.57810026 1.1333226e-38
3.2576628 -0.85802186 -0.57352412 1.0872609e-38
3.3019028 -0.85964316 -0.57474691 1.0504188e-38
3.343807 -0.85686421 -0.56935805 1.0319798e-38
3.3759351 -0.86298919 -0.57092702 1.0227961e-38
3.4089155 -0.85569334 -0.57148153 1.0411634e-38
3.4581285 -0.85992062 -0.57078636 1.0411992e-38
3.5106285 -0.8513301 -0.56711215 1.0411992e-38
3.5489304 -0.8641156 -0.57253486 1.0411994e-38
3.5860612 -0.85711223 -0.56751102 1.0412352e-38
3.6239254 -0.85580325 -0.57114387 1.0412357e-38
3.6621289 -0.85799575 -0.56641299 1.0504201e-38
3.7012086 -0.85859519 -0.56917757 1.0504199e-38
3.7411292 -0.86163288 -0.56393313 1.0412005e-38
3.7817781 -0.85889125 -0.56699377 1.0319806e-38
3.8233364 -0.85892934 -0.57271874 1.0319802e-38
3.8667972 -0.85882699 -0.56702918 1.0135407e-38
3.9094529 -0.84817976 -0.57137221 1.0135403e-38
3.9543588 -0.85410875 -0.56368792 9.7677019e-39
3.9994688 -0.84982085 -0.57198268 9.6758664e-39
4.0011573 -0.84681493 -0.56909144 9.7677019e-39
4.0464048 -0.85328245 -0.56239152 9.8602549e-39
4.0939612 -0.85247976 -0.58328104 9.3096048e-39
2.0103536 -0.81578875 -0.59178966 1.3361178e-38
2.5560393 -0.83169836 -0.59653974 1.4924526e-38
2.5926981 -0.82347828 -0.59563524 1.4831245e-38
2.6261864 -0.82375258 -0.59363878 1.492272e-38
2.6533518 -0.83078158 -0.59887278 1.4830526e-38
2.7030323 -0.82591426 -0.59520185 1.4555024e-38
2.7413003 -0.82614338 -0.59573293 1.409549e-38
2.7795155 -0.81441981 -0.59665149 1.3453005e-38
2.8015232 -0.82928365 -0.59072912 1.3268971e-38
2.9002452 -0.81014192 -0.59804976 1.2439937e-38
2.9442787 -0.81962991 -0.59815615 1.2439936e-38
2.9928372 -0.82379484 -0.59610707 1.2071514e-38
3.0212729 -0.81908661 -0.58898312 1.1794927e-38
3.0620193 -0.81292778 -0.58896869 1.1886762e-38
3.1038899 -0.82152367 -0.58563733 1.1886762e-38
3.1359053 -0.82735896 -0.58499658 1.1794565e-38
3.1861281 -0.81755555 -0.58392507 1.1702009e-38
3.2188818 -0.82063228 -0.5821529 1.1425781e-38
3.259274 -0.82035524 -0.57781261 1.1148834e-38
3.3005173 -0.82175046 -0.57646042 1.0872249e-38
3.3437662 -0.81455135 -0.5729391 1.0688216e-38
3.3756628 -0.81941539 -0.5749923 1.0596381e-38
3.4088409 -0.81682527 -0.57163757 1.0504187e-38
3.4537156 -0.81932998 -0.56983811 1.0411992e-38
3.5125341 -0.81832534 -0.56728089 1.0320161e-38
3.5490754 -0.81922525 -0.57243651 1.0320161e-38
3.5859601 -0.8179487 -0.56791526 1.0411998e-38
3.6241601 -0.82719529 -0.57131243 1.0411999e-38
3.661947 -0.82611895 -0.56337446 1.0411997e-38
3.7005632 -0.81577694 -0.57170445 1.0320161e-38
3.7410038 -0.82189268 -0.5664407 1.0227964e-38
3.7818623 -0.82200998 -0.57017148 1.0227964e-38
3.8236964 -0.82696784 -0.57327485 1.0227963e-38
3.8667133 -0.83256662 -0.5663383 1.0135764e-38
3.9096949 -0.82914215 -0.5714711 1.0135764e-38
3.9549766 -0.83085775 -0.56451637 9.7677019e-39
3.9994185 -0.83403927 -0.56997806 9.5836736e-39
4.0011964 -0.83156693 -0.56905258 9.7673432e-39
2.4802144 -0.767048 -0.59860009 1.5107476e-38
2.5540283 -0.7907297 -0.5966956 1.4923445e-38
2.5847659 -0.79530901 -0.59388614 1.4923083e-38
2.6324165 -0.77099228 -0.59485006 1.3267542e-38
2.6580243 -0.76891011 -0.59752518 1.3084945e-38
2.7061191 -0.77629888 -0.59388816 1.2900557e-38
2.7384338 -0.77964252 -0.59592956 1.2993113e-38
2.7798181 -0.78576893 -0.59659684 1.2993113e-38
2.8003519 -0.79845715 -0.59079617 1.3452297e-38
2.869951 -0.76253223 -0.5727421 1.1702733e-38
2.8997796 -0.78417057 -0.59792489 1.2347739e-38
2.941864 -0.78440613 -0.59780294 1.2163349e-38
2.9942181 -0.78276175 -0.59081221 1.1886405e-38
3.0220098 -0.78018838 -0.58717114 1.1794569e-38
3.0607409 -0.78046465 -0.58810318 1.1794568e-38
3.103518 -0.77811164 -0.58647507 1.1702372e-38
3.143786 -0.77727664 -0.58609724 1.1610177e-38
3.1832688 -0.77875018 -0.58445686 1.1517622e-38
3.2190278 -0.7778132 -0.58273131 1.1425425e-38
3.2585275 -0.77977121 -0.57810187 1.1333228e-38
3.3027034 -0.78018403 -0.57628834 1.1148836e-38
3.3438232 -0.77764177 -0.57564574 1.1056639e-38
3.3755221 -0.78109843 -0.57428354 1.0780055e-38
3.4087448 -0.78177398 -0.5734759 1.0596023e-38
3.4588816 -0.77931863 -0.57276225 1.0596023e-38
3.5124412 -0.78084892 -0.5702101 1.0503829e-38
3.5489385 -0.78831708 -0.57301176 1.0411994e-38
3.5860274 -0.78468555 -0.57459861 1.0411994e-38
3.6239748 -0.78781712 -0.57989973 1.0411992e-38
3.6614363 -0.79325366 -0.57311445 1.0320158e-38
3.7020688 -0.79883397 -0.5724225 1.0411992e-38
3.7421806 -0.79338837 -0.56040722 1.041235e-38
2.078347 -0.7363174 -0.58856523 1.3821441e-38
2.1041248 -0.74478281 -0.5955267 1.3913633e-38
2.5519409 -0.72099012 -0.59687102 1.4279538e-38
2.6529586 -0.74208379 -0.5985586 1.2900553e-38
2.6967714 -0.74694663 -0.59749955 1.2347743e-38
2.7360518 -0.74794894 -0.59751952 1.2163711e-38
2.7809989 -0.73760408 -0.59621191 1.2348101e-38
2.8193026 -0.73207706 -0.59436017 1.2255906e-38
2.8674746 -0.74085897 -0.59366536 1.2255545e-38
2.9013004 -0.72920614 -0.595092 1.2163349e-38
2.9408545 -0.73150337 -0.59557694 1.1979318e-38
2.988188 -0.74196351 -0.59383607 1.1794568e-38
3.0219622 -0.74225551 -0.59019589 1.1794208e-38
3.062747 -0.74314296 -0.59123337 1.1702372e-38
3.1038878 -0.74243093 -0.59056425 1.1702371e-38
3.1417468 -0.7403844 -0.58842719 1.1609815e-38
3.183435 -0.74009007 -0.58697104 1.1517621e-38
3.2186859 -0.74001396 -0.58256876 1.133359e-38
3.2582638 -0.74415016 -0.57994312 1.1333228e-38
3.3030357 -0.74503022 -0.58022445 1.1149196e-38
3.3437376 -0.74704158 -0.57906091 1.105664e-38
3.3760104 -0.75015652 -0.57764089 1.0964446e-38
3.408608 -0.7539984 -0.57955855 1.087261e-38
3.4475291 -0.75851709 -0.57666796 1.0780413e-38
3.5144625 -0.75990355 -0.56632602 1.0596022e-38
2.6518877 -0.71484816 -0.59933752 1.2531774e-38
2.7353103 -0.71329618 -0.59758753 1.2255189e-38
2.7793958 -0.71305972 -0.5905664 1.2255546e-38
2.8127286 -0.71505213 -0.59313327 1.2347739e-38
2.8706706 -0.69680035 -0.59359139 1.234774e-38
2.9010818 -0.69983047 -0.59511626 1.2255545e-38
2.9363847 -0.69988918 -0.59229887 1.2163349e-38
2.9812202 -0.70122916 -0.5898487 1.2071154e-38
3.0215814 -0.6998753 -0.58856893 1.2070795e-38
3.063446 -0.70264769 -0.59004772 1.1978958e-38
3.1035674 -0.70039219 -0.58978951 1.1886761e-38
3.1405904 -0.70067072 -0.58593249 1.1609815e-38
3.1800008 -0.70509237 -0.58627635 1.1517621e-38
3.2186215 -0.70884347 -0.58250844 1.1333588e-38
3.2519145 -0.71596467 -0.58560067 1.1333588e-38
3.2998235 -0.71713132 -0.5871008 1.1241394e-38
2.6914263 -0.64570552 -0.59850729 1.2255548e-38
2.779727 -0.643471 -0.59651089 1.1886406e-38
2.8243678 -0.65882033 -0.59545743 1.2162637e-38
2.8710313 -0.65930992 -0.59441197 1.2255545e-38
2.8995435 -0.66296959 -0.5957371 1.2163351e-38
2.9356778 -0.66808993 -0.59362191 1.2163351e-38
2.9845834 -0.67142403 -0.5916158 1.2255186e-38
3.0215759 -0.67199546 -0.59047478 1.2163353e-38
3.0556922 -0.67517549 -0.59160399 1.2162992e-38
3.103785 -0.67820108 -0.58928788 1.1886762e-38
3.1440504 -0.67465824 -0.58964187 1.1793846e-38
3.1602871 -0.67772907 -0.59371948 1.1886755e-38
2.7080817 -0.60814792 -0.59292424 1.1887488e-38
2.7361009 -0.61428326 -0.59733355 1.1978963e-38
2.7791922 -0.62295401 -0.59658092 1.1794212e-38
2.8244681 -0.63176602 -0.59543425 1.1978238e-38
2.5807135 -0.56209409 -0.58405793 1.2531774e-38
2.6203785 -0.57164419 -0.58851087 1.2255549e-38
2.6634331 -0.58582425 -0.5944674 1.2163352e-38
2.6934502 -0.59317291 -0.59792417 1.2071158e-38
2.5151165 -0.52001691 -0.56898409 1.2716526e-38
2.5455782 -0.53719735 -0.57031071 1.2347743e-38
2.5787489 -0.54342586 -0.58665669 1.262433e-38
2.6144192 -0.54891837 -0.59273875 1.2532134e-38
2.652132 -0.55502307 -0.59926367 1.2531776e-38
2.5148482 -0.49225432 -0.56858057 1.2716166e-38
2.5435586 -0.49948049 -0.57911253 1.262433e-38
2.5772328 -0.50574613 -0.59243035 1.2716526e-38
2.235388 -0.44420335 -0.59888363 1.2901277e-38
2.2404189 -0.44140708 -0.59993196 1.2717972e-38
2.473352 -0.4480992 -0.5772059 1.4097299e-38
2.4989369 -0.45799306 -0.57968897 1.3821074e-38
2.5406232 -0.4746747 -0.58827114 1.3360816e-38
2.1957996 -0.42533654 -0.58857328 1.3177142e-38
2.2295635 -0.43370536 -0.59735501 1.308531e-38
2.4281044 -0.40798053 -0.57023281 1.4649753e-38
2.4558542 -0.41956109 -0.57977074 1.4465364e-38
2.4808297 -0.42595273 -0.5952794 1.4649397e-38
2.4224987 -0.37230825 -0.566787 1.3452656e-38
2.4596901 -0.38561827 -0.5792594 1.3821434e-38
2.4850705 -0.38036811 -0.59378529 1.4097662e-38
2.4179995 -0.33902928 -0.56730711 1.2348468e-38
2.4589672 -0.33944997 -0.58485222 1.2624693e-38
2.4824317 -0.33951169 -0.59610748 1.271689e-38
2.4204705 -0.2978237 -0.56792295 1.1795653e-38
2.4587667 -0.29821903 -0.58215964 1.1888207e-38
2.485569 -0.30409855 -0.59456456 1.2164434e-38
2.3935275 -0.2490932 -0.57117468 1.1887487e-38
2.4147983 -0.25764728 -0.57392418 1.179565e-38
2.4492033 -0.26659918 -0.59110314 1.2164432e-38
2.4808309 -0.27693576 -0.59823722 1.2256629e-38
2.393522 -0.21690971 -0.56938088 1.1703098e-38
2.413413 -0.22222772 -0.57807505 1.1887847e-38
2.4453766 -0.22413728 -0.5988043 1.2164792e-38
2.4800916 -0.20199013 -0.598234 1.1887487e-38
2.3937285 -0.1869105 -0.57151687 1.1611259e-38
2.4132297 -0.17843871 -0.57444632 1.1519062e-38
2.4451089 -0.1737581 -0.59651923 1.1980401e-38
2.4802377 -0.18329418 -0.59834099 1.1795653e-38
2.4232612 -0.14042789 -0.57467717 1.1242833e-38
2.4447758 -0.13259406 -0.5826776 1.1058086e-38
2.4202969 -0.10298134 -0.57291645 1.1334667e-38
2.4490685 -0.10113012 -0.5842216 1.1242119e-38
2.0211928 -0.057898492 -0.59547704 1.4189861e-38
2.4258435 -0.079059012 -0.57242435 1.1426502e-38
2.4580553 -0.066897511 -0.58001447 1.1426147e-38
2.4803326 -0.065200895 -0.59817356 1.280836e-38
1.554348 -0.0013456773 -0.57333076 1.2717247e-38
1.5754915 -0.0029794672 -0.57255256 1.2624692e-38
1.6042107 -0.0051509701 -0.57669657 1.2533213e-38
1.5008793 0.034938715 -0.57687122 1.1703816e-38
1.5371423 0.021631598 -0.58938771 1.2625052e-38
1.5659029 0.0098700738 -0.5827859 1.2809083e-38
1.473328 0.066966526 -0.56402576 5.711104e-39
1.4952924 0.052851941 -0.57559866 8.2018251e-39
1.5208855 0.054197665 -0.59775418 8.3862122e-39
2.7468567 0.072188564 -0.57875007 1.5640845e-39
2.7781971 0.073985614 -0.59154367 1.2885738e-39
2.7507217 0.083750993 -0.57748902 1.8417518e-39
2.7789493 0.086978465 -0.58946663 1.8413931e-39
2.8186915 0.093319274 -0.59287107 2.2098154e-39
2.8547199 0.10461932 -0.5965957 2.9466602e-39
2.8962038 0.11132056 -0.59857231 3.4069195e-39
2.9428709 0.11359388 -0.59778345 3.2218122e-39
2.9741714 0.11468394 -0.59369171 2.6664888e-39
3.0468857 0.11789442 -0.59712934 7.0861253e-39
2.8231378 0.12897034 -0.59540737 3.8679005e-39
2.8524592 0.1257458 -0.59853858 3.7749874e-39
2.894213 0.12398832 -0.59911495 3.6827903e-39
2.943105 0.13442747 -0.59750485 4.6965821e-39
2.9828267 0.14229576 -0.59331 9.6823502e-39
3.0200007 0.14366564 -0.59076637 1.1422916e-38
3.055373 0.14317134 -0.59160703 1.2901647e-38
3.1021931 0.15439677 -0.59350634 1.2904182e-38
3.1425662 0.14330986 -0.59080523 1.6956429e-38
3.3097467 0.14507741 -0.58468139 1.7972003e-38
3.3417416 0.14686751 -0.58185387 1.5753921e-38
3.5113196 0.15691307 -0.56652969 1.8062747e-38
2.8231795 0.19343208 -0.59523427 1.2264194e-38
2.8938329 0.19838908 -0.5885402 1.2453956e-38
2.943171 0.18225858 -0.59519839 1.3089989e-38
2.9866223 0.18206854 -0.59339082 1.1801422e-38
3.0200753 0.18671386 -0.59060371 1.0218263e-38
3.0550981 0.18257484 -0.59357184 1.2345948e-38
3.1020634 0.1882816 -0.59184861 1.3457335e-38
3.141845 0.18934208 -0.59191072 1.5112895e-38
3.187036 0.18548921 -0.59733838 1.5574233e-38
3.2173717 0.18194382 -0.59245872 1.6311092e-38
3.256705 0.18802227 -0.59507912 1.6311093e-38
3.3100612 0.19658639 -0.59393364 1.5482056e-38
3.3414493 0.19867358 -0.58041704 1.4928526e-38
3.3740633 0.18982933 -0.58553773 1.6218899e-38
3.4067242 0.17313896 -0.57262379 1.8337578e-38
3.448719 0.19174178 -0.57770604 1.8798553e-38
3.5108685 0.19465628 -0.58321899 1.8705998e-38
3.547226 0.18783753 -0.57895863 1.8613805e-38
3.5840719 0.18181331 -0.57133758 1.8337574e-38
2.815341 0.22493331 -0.5937475 1.0143679e-38
2.8602276 0.21846659 -0.59428906 9.2141876e-39
2.9032924 0.22740495 -0.59638125 5.4305598e-39
2.9429197 0.23097159 -0.59697181 2.8548401e-39
2.9775259 0.22170703 -0.59201413 4.2327467e-39
3.0201035 0.21996307 -0.59019017 4.8723722e-39
3.0628829 0.21937232 -0.58912683 1.0137584e-38
3.1019411 0.21698266 -0.58561671 1.4837745e-38
3.1459854 0.21407846 -0.58979237 1.5480595e-38
3.1868503 0.20968148 -0.58979154 1.5296919e-38
3.2169385 0.21264648 -0.59121972 1.5204726e-38
3.2644489 0.21751548 -0.59030211 1.5204727e-38
3.3098485 0.21495591 -0.59253734 1.5112529e-38
3.3418448 0.21514715 -0.58705765 1.5021055e-38
3.3740215 0.21184039 -0.5899502 1.5019617e-38
3.4072013 0.21109387 -0.58332145 1.483559e-38
3.4523995 0.21452488 -0.57765543 1.4835956e-38
3.5108371 0.22170654 -0.57970935 1.5019986e-38
3.5468962 0.22010906 -0.57977402 1.5850462e-38
3.584013 0.21813296 -0.56867999 1.5941582e-38
2.7897356 0.26030713 -0.58520716 4.325657e-39
2.8227024 0.25777715 -0.59523189 2.8519647e-39
2.8607459 0.26436841 -0.59492588 2.9441603e-39
2.898582 0.26114538 -0.59768367 3.4058559e-39
2.94278 0.25666448 -0.5982973 3.5877234e-39
2.9906847 0.24939646 -0.5962972 3.8650362e-39
3.0198109 0.24811645 -0.59082794 6.1645207e-39
3.0558755 0.26062497 -0.59320039 1.0687862e-38
3.101819 0.26536947 -0.59306931 1.4742313e-38
3.145643 0.26659396 -0.58868545 1.5481674e-38
3.1867697 0.26822659 -0.58351034 1.5481674e-38
3.216697 0.26998362 -0.57939446 1.5481313e-38
3.2616048 0.27156428 -0.58330566 1.538912e-38
3.309957 0.26218361 -0.58524674 1.5296924e-38
3.3419497 0.26526713 -0.58050263 1.5205089e-38
3.3743834 0.27931827 -0.57592726 1.5296923e-38
3.4070528 0.2706753 -0.57989967 1.5205448e-38
3.4497614 0.25941008 -0.58618605 1.5481311e-38
3.5467079 0.24540979 -0.58657223 1.5480953e-38
3.5839229 0.24662292 -0.56853628 1.5481672e-38
2.7332904 0.31079257 -0.59735215 3.219657e-39
2.7781394 0.31642783 -0.59613484 6.3543378e-39
2.8230255 0.28995794 -0.59494042 1.8388833e-39
2.8601892 0.28979564 -0.59277147 6.1677802e-39
2.897517 0.29480299 -0.59803957 7.4628294e-39
2.9427423 0.29706898 -0.59775114 1.1060606e-38
2.9826963 0.30655923 -0.59306967 8.6592019e-39
3.0197351 0.31103519 -0.58908856 4.3242221e-39
3.05933 0.29915494 -0.59209192 8.6606537e-39
3.1017661 0.29444215 -0.59414738 1.1051986e-38
3.1498313 0.2949498 -0.59091908 1.3362617e-38
3.1867416 0.29367667 -0.58708489 1.456044e-38
3.2168009 0.29920784 -0.58760071 1.4836668e-38
3.2656417 0.30126178 -0.58428878 1.520473e-38
3.3097939 0.30311093 -0.58300698 1.5296926e-38
3.341814 0.30942559 -0.58107156 1.5296926e-38
3.3737757 0.30756485 -0.57893306 1.5296926e-38
3.4067917 0.30529252 -0.57591116 1.538912e-38
3.450707 0.30148032 -0.57314569 1.5482036e-38
2.6931772 0.35231781 -0.59738564 5.0675479e-39
2.740855 0.34629315 -0.59526795 1.0140802e-38
2.7777247 0.34919041 -0.59615546 8.8439463e-39
2.8511231 0.33150411 -0.59714258 1.0410527e-38
2.8937278 0.34270105 -0.59916902 6.8131089e-39
2.9427533 0.3497223 -0.59802747 5.9826602e-39
2.9927704 0.33669978 -0.59240204 6.2628246e-39
3.0196381 0.34609187 -0.58493501 1.0683899e-38
3.0503569 0.34265786 -0.58543849 1.0962997e-38
3.1018441 0.32325247 -0.59321654 7.6518828e-39
3.1474259 0.33128059 -0.59316027 9.8541004e-39
3.1868682 0.32597774 -0.59415823 1.1423259e-38
3.2169619 0.32738307 -0.59208739 1.2256282e-38
3.2670858 0.33338597 -0.59019005 1.456044e-38
3.309814 0.33213973 -0.59061474 1.5389477e-38
3.3417597 0.33878505 -0.58560085 1.5389477e-38
3.373625 0.34483266 -0.58551401 1.5389479e-38
3.4065969 0.3440516 -0.5821653 1.538948e-38
3.441678 0.33743146 -0.58572572 1.5389121e-38
2.6908896 0.36577377 -0.59835285 1.0319039e-38
2.7516143 0.38174731 -0.592224 2.5757323e-39
2.7775576 0.37930477 -0.59649807 1.6555781e-39
2.895411 0.37821144 -0.59882456 4.8773692e-39
2.9426548 0.37674853 -0.59754264 8.2792973e-39
2.9784205 0.3805714 -0.58835518 1.3266461e-38
3.0195975 0.38152379 -0.58216065 1.492598e-38
3.0500596 0.37996706 -0.57446069 1.5480953e-38
3.10164 0.3900286 -0.56692386 1.5388038e-38
3.1295733 0.39470145 -0.56592196 1.4740146e-38
3.1866803 0.39313838 -0.57454336 1.5112174e-38
3.2727389 0.37647626 -0.57537061 1.4000785e-38
3.3097088 0.36966699 -0.58099854 1.4373156e-38
3.3416741 0.36891529 -0.57441932 1.3815319e-38
3.3735306 0.37274629 -0.57803375 1.3443665e-38
3.4073572 0.37079534 -0.58346564 1.4000074e-38
2.6161304 0.43184122 -0.59785217 2.3031181e-39
2.7009866 0.41108346 -0.5951702 6.1684654e-39
2.7352934 0.42185515 -0.59656221 6.0705202e-39
2.7783825 0.4269636 -0.5963698 4.7971001e-39
2.8223608 0.43928504 -0.59549475 1.5943715e-38
2.8615704 0.42554626 -0.59575117 1.4283121e-38
2.8993587 0.42337471 -0.59361827 1.456007e-38
2.9425199 0.41968364 -0.59077424 1.4467161e-38
2.9810865 0.42194626 -0.58386391 1.5573507e-38
3.0195487 0.42041782 -0.58012438 1.5573506e-38
3.0547407 0.42011562 -0.57237905 1.5388391e-38
3.1013484 0.42241293 -0.56260246 1.289011e-38
2.6491027 0.44143793 -0.59870344 2.5804323e-39
2.6962912 0.47529289 -0.59423822 9.6733483e-39
2.7334545 0.4770548 -0.59706086 1.2896949e-38
2.7819064 0.44897452 -0.59686983 1.0505284e-38
2.8547196 0.45569706 -0.59749192 1.5478788e-38
2.9019799 0.45455319 -0.59505951 1.5294764e-38
2.9424415 0.4610576 -0.5902465 1.5202211e-38
2.9801946 0.45994917 -0.57488662 1.501889e-38
3.0193624 0.44512087 -0.56980854 1.50196e-38
3.0464742 0.44424185 -0.56362224 1.3260325e-38
2.623316 0.49741167 -0.59463131 3.1252921e-39
2.6493523 0.50611478 -0.59907442 3.1245733e-39
2.7116203 0.48267248 -0.59254187 1.4737256e-38
2.7355089 0.48714027 -0.59633398 1.4829811e-38
2.7779043 0.49863014 -0.59600973 1.4553603e-38
2.8221374 0.50086164 -0.58088923 1.4919499e-38
2.8606808 0.50310266 -0.59059137 1.4919857e-38
2.9018939 0.49748459 -0.59325725 1.5105332e-38
2.9423845 0.49741024 -0.59301013 1.5107851e-38
2.9800222 0.49584875 -0.58132976 1.5110365e-38
3.019243 0.49899235 -0.5839361 1.5018168e-38
2.669343 0.5247134 -0.59382665 4.2266693e-39
2.6906459 0.52985108 -0.59798503 4.5046771e-39
2.8684757 0.53492099 -0.59412855 1.3895992e-38
2.9019768 0.53888083 -0.59625775 1.4174012e-38
2.9423187 0.54176271 -0.59436452 1.4361647e-38
2.9773953 0.53395128 -0.5905605 1.473763e-38
3.0192752 0.531726 -0.59006047 1.5202195e-38
3.0465171 0.54911697 -0.59605169 1.4644342e-38
2.7889287 0.57225275 -0.59101653 1.445311e-38
2.8219907 0.57868612 -0.59334356 1.4082537e-38
2.8584406 0.57675016 -0.59495819 1.4268364e-38
2.897846 0.56772786 -0.59785533 1.4546034e-38
2.9422865 0.56633401 -0.59786683 1.4822995e-38
2.9881341 0.56875259 -0.59592277 1.4551058e-38
1.8705553 0.79452711 -0.58499879 1.0040323e-38
1.9024066 0.79100007 -0.59034508 8.8410695e-39
1.9334526 0.79321349 -0.59386015 7.7332968e-39
1.98303 0.79404163 -0.59402353 5.3380167e-39
2.0327413 0.79224175 -0.57922155 8.3790179e-39
2.0504346 0.7967841 -0.58066332 8.6559621e-39
1.8295228 0.81490862 -0.59505069 1.2810878e-38
1.8700281 0.82451445 -0.59138244 9.5797107e-39
1.894442 0.82021779 -0.58785886 7.9191062e-39
1.9423953 0.81960827 -0.58944815 4.7826723e-39
1.9837592 0.82039452 -0.5894435 4.4160464e-39
2.023283 0.8178792 -0.57970178 7.1833474e-39
2.0517108 0.80976731 -0.58483368 9.4886053e-39
1.8674742 0.85589212 -0.59341621 5.8025667e-39
1.8960379 0.85843462 -0.59070212 2.9455868e-39
1.942817 0.86425465 -0.57934153 2.1161919e-39
1.9822819 0.8582167 -0.57603323 1.2882221e-39
2.0077236 0.85123599 -0.578825 1.5644474e-39
1.8329798 0.91879588 -0.59612912 1.6559284e-39
1.8698461 0.91345209 -0.58982277 2.4831737e-39
1.9048216 0.90267301 -0.58865911 2.574282e-39
1.9380671 0.89789128 -0.57623321 1.9310762e-39
1.9727994 0.88781238 -0.57202452 1.3797003e-39
1.7593189 0.95967853 -0.57925916 8.1740906e-39
1.7949553 0.95995253 -0.57749903 9.187235e-40
1.8247993 0.95333159 -0.57734811 4.5928594e-39
1.8579528 0.94232017 -0.58671641 3.5848382e-39
1.8970902 0.94076431 -0.57584679 3.3990022e-39
1.9393743 0.93844151 -0.57224929 3.3071639e-39
1.9764906 0.94752777 -0.5646733 7.7152691e-39
2.0024123 0.94628114 -0.56037289 1.0931668e-38
1.75889 0.96685332 -0.57891715 6.0615099e-39
1.7881267 0.97780091 -0.57810968 6.245541e-39
1.8176926 0.97387797 -0.57694221 6.3373779e-39
1.8588316 0.97464561 -0.56999654 5.878199e-39
1.8964347 0.98236138 -0.56727159 6.7969169e-39
1.9389372 0.97575688 -0.56284088 6.9813124e-39
1.9792917 0.96751678 -0.56366718 9.4612281e-39
2.0009589 0.96172905 -0.56019104 1.2496117e-38
1.829834 1.0050848 -0.56221169 7.3540704e-40
1.8524653 1.0122731 -0.56208664 6.4357014e-40
1.8967299 1.0113481 -0.56336755 8.2724254e-40
1.9337643 1.0111969 -0.5628289 7.3576717e-40
1.9022971 1.0427202 -0.56100339 6.4393028e-40
4.1452432 -2.487474 -0.53632301 8.3826081e-39
4.195117 -2.4925432 -0.53773046 4.2359865e-39
4.2467313 -2.4938221 -0.5238471 2.2994943e-39
4.299736 -2.4918265 -0.53037977 7.1808096e-39
4.3560824 -2.5043752 -0.5313406 7.9219956e-39
4.0490904 -2.4407077 -0.52989352 8.8367451e-39
4.0967178 -2.4615066 -0.53474307 8.5680769e-39
4.1460867 -2.4598696 -0.53511226 5.0628507e-39
4.201088 -2.4762433 -0.53335911 2.1151241e-39
4.2467203 -2.4723325 -0.53460109 5.5241778e-39
4.3009224 -2.4501574 -0.53856671 7.6435983e-39
4.002346 -2.4126318 -0.53926575 9.0290565e-39
4.0511966 -2.4215887 -0.5367986 9.0261754e-39
4.0988183 -2.4289706 -0.53257084 5.7082215e-39
4.1514978 -2.425823 -0.52682596 3.586629e-39
4.3043509 -2.4224474 -0.53003263 6.6373735e-39
3.9554062 -2.3708425 -0.54075617 9.3996495e-39
3.9618709 -2.3659852 -0.53290373 8.8471973e-39
4.0020952 -2.3822398 -0.53422105 9.1165647e-39
4.0509987 -2.386441 -0.53453797 5.7064124e-39
4.0967383 -2.3601174 -0.52129692 7.6429102e-39
4.1507349 -2.3998477 -0.52702224 8.3865555e-39
4.1957326 -2.3790398 -0.53371817 6.9013557e-39
4.2513337 -2.3607123 -0.52337986 7.8244218e-39
3.916713 -2.3247287 -0.52686054 9.1234157e-39
3.9553876 -2.3508265 -0.54326242 1.0411635e-38
3.9617126 -2.3209486 -0.53287202 9.5771996e-39
4.0011773 -2.3374376 -0.5392766 9.3953082e-39
4.0992932 -2.3275671 -0.54895711 9.6765544e-39
4.147819 -2.3394361 -0.53946072 7.7350876e-39
4.1958733 -2.3443899 -0.54166591 9.0247335e-39
3.9616337 -2.2984304 -0.53285611 9.4886067e-39
4.0023823 -2.2952988 -0.541538 9.9488548e-39
4.0510478 -2.3045883 -0.54171038 9.4889458e-39
4.0997024 -2.3040032 -0.54430664 8.9383126e-39
4.1472983 -2.3083975 -0.53672117 8.3815403e-39
3.9599991 -2.246932 -0.53273988 1.0412338e-38
3.9615545 -2.2759123 -0.53284031 9.7644691e-39
4.0039687 -2.2553039 -0.53907031 1.022795e-38
4.0533657 -2.2578874 -0.5350396 9.1219682e-39
4.1017561 -2.2790849 -0.53626889 8.5666588e-39
3.4784822 -2.0893607 -0.54505789 1.0042492e-38
3.5083203 -2.0945504 -0.55033404 1.0869738e-38
3.5505214 -2.0990591 -0.5549984 1.1331439e-38
3.5872941 -2.1005878 -0.55000037 1.1700213e-38
3.4093621 -2.0487754 -0.54542172 1.0317641e-38
3.4594517 -2.0523763 -0.54204237 1.1423266e-38
3.5023084 -2.0563393 -0.54493403 1.1699856e-38
3.5505695 -2.0703869 -0.54848194 1.179205e-38
3.5874364 -2.0713325 -0.55153269 1.170022e-38
3.6298537 -2.047972 -0.55715305 1.2252675e-38
3.6611779 -2.0455697 -0.54946542 1.161198e-38
3.3462126 -2.009387 -0.55070049 1.0409839e-38
3.3778658 -2.0104473 -0.54710031 1.1238876e-38
3.4105697 -2.021569 -0.54040158 1.1515462e-38
3.4546988 -2.0226769 -0.54318422 1.1792051e-38
3.4932644 -2.0177774 -0.54779762 1.1884607e-38
3.5524819 -2.0079384 -0.55937523 1.2438493e-38
3.625603 -2.0131822 -0.55738097 1.2253746e-38
3.2791607 -1.9653018 -0.54983395 1.0777536e-38
3.309046 -1.9752035 -0.55087519 1.0962648e-38
3.3454983 -1.9812447 -0.54789662 1.1699494e-38
3.3776734 -1.9790261 -0.54541397 1.1976084e-38
3.4102979 -1.9874288 -0.54604185 1.1976087e-38
3.4517279 -1.9744997 -0.55055857 1.2253029e-38
3.5087547 -1.971855 -0.55180877 1.2437779e-38
3.5515718 -1.9739172 -0.5577451 1.2345943e-38
3.5877857 -1.9832268 -0.55156612 1.2345943e-38
3.6266179 -1.992898 -0.55743027 1.2437061e-38
3.2226079 -1.9266976 -0.55221069 1.0869735e-38
3.2598562 -1.9390416 -0.54752535 1.1238876e-38
3.3006713 -1.9406914 -0.5482434 1.1976082e-38
3.3453431 -1.9405258 -0.5447467 1.2160476e-38
3.3773937 -1.9353858 -0.54863352 1.2253031e-38
3.4107332 -1.9432906 -0.54736745 1.2345225e-38
3.4503736 -1.9375427 -0.55172139 1.2437781e-38
3.5040698 -1.93943 -0.55088723 1.2345944e-38
3.5510859 -1.9508723 -0.55661952 1.2437778e-38
3.1363392 -1.8831397 -0.55353671 1.1055202e-38
3.1863823 -1.8934025 -0.54568255 1.1331433e-38
3.2225888 -1.8965545 -0.54870939 1.2068637e-38
3.2571163 -1.8990465 -0.54484546 1.2252671e-38
3.3006444 -1.89785 -0.54640037 1.2253031e-38
3.347388 -1.8997347 -0.54740471 1.2437062e-38
3.3779831 -1.9039104 -0.55222553 1.2437781e-38
3.4117055 -1.9103218 -0.54707867 1.2437779e-38
3.4498155 -1.899971 -0.55208421 1.2529615e-38
3.4865775 -1.9110062 -0.54794991 1.2437779e-38
3.1385028 -1.8706393 -0.5534839 1.1514391e-38
3.191643 -1.853235 -0.54404414 1.2253031e-38
3.221463 -1.8605229 -0.54689306 1.2253029e-38
3.255055 -1.864711 -0.54560328 1.2253031e-38
3.3003922 -1.8659266 -0.55255973 1.2345225e-38
3.3469622 -1.8627027 -0.55253679 1.2437781e-38
3.3783388 -1.8650123 -0.55698574 1.2529615e-38
3.4130642 -1.8680732 -0.55020028 1.2530334e-38
3.4469783 -1.8701591 -0.55578148 1.2622171e-38
3.1470156 -1.8169304 -0.55276662 1.2345588e-38
3.1821356 -1.8268996 -0.54800117 1.2345225e-38
3.2214882 -1.8229988 -0.55258542 1.2345585e-38
3.2556877 -1.827764 -0.54701906 1.2345584e-38
3.3005433 -1.8299762 -0.55604345 1.2345584e-38
3.3470049 -1.830933 -0.55252957 1.2529974e-38
3.076725 -1.7819141 -0.55531061 1.2620743e-38
3.0992036 -1.7829318 -0.55628383 1.2620737e-38
3.1461823 -1.7831769 -0.55415517 1.2438137e-38
3.1717153 -1.7869157 -0.55321467 1.2437779e-38
3.0269363 -1.7324531 -0.55639517 1.2712571e-38
3.0789194 -1.7224687 -0.55524635 1.2438865e-38
3.0968857 -1.7371092 -0.55449468 1.2621809e-38
3.1363747 -1.7480817 -0.55067527 1.2529612e-38
3.0256677 -1.6984255 -0.55101562 1.2713642e-38
3.0592256 -1.7017993 -0.55216181 1.2713649e-38
3.0800021 -1.710542 -0.55488551 1.2714008e-38
2.9466465 -1.6067362 -0.55382043 1.2899119e-38
2.9712675 -1.6173145 -0.55867195 1.2899472e-38
2.8992419 -1.5724831 -0.5508315 1.3083506e-38
2.9306459 -1.5887719 -0.55237186 1.3082789e-38
2.8256245 -1.522833 -0.53867644 1.3083147e-38
2.8529902 -1.5367701 -0.54531384 1.3083149e-38
2.8947513 -1.5597184 -0.54483682 1.3174986e-38
2.7587249 -1.4856945 -0.53161585 1.3083506e-38
2.7831438 -1.4888985 -0.53221244 1.308315e-38
2.8158553 -1.4975336 -0.5394119 1.2990953e-38
2.8480546 -1.5002596 -0.55452973 1.3174982e-38
2.759464 -1.4749527 -0.53012872 1.3083512e-38
2.7819428 -1.4553186 -0.53219366 1.3174983e-38
2.8107543 -1.4651947 -0.53728503 1.3083147e-38
4.839932 -1.4418435 -0.52348977 1.8219664e-38
4.8413234 -1.4400706 -0.52327007 1.8035632e-38
2.7161717 -1.4016014 -0.52876407 1.3267534e-38
2.7485099 -1.4097946 -0.5373888 1.3267536e-38
2.7787929 -1.4193019 -0.54117441 1.3267177e-38
2.8024883 -1.4182009 -0.54049617 1.3083145e-38
4.8399181 -1.4234657 -0.52348423 1.8127109e-38
4.8432374 -1.4250526 -0.52270681 1.7760844e-38
2.7163527 -1.3860158 -0.52635747 1.3267174e-38
2.7486277 -1.386106 -0.53781509 1.3267176e-38
2.7797053 -1.375744 -0.53862512 1.3083502e-38
2.8026063 -1.386645 -0.54226387 1.3083143e-38
4.6453762 -1.3667927 -0.52054137 1.7576813e-38
4.7101626 -1.3699408 -0.52649254 1.4820676e-38
4.7756228 -1.3629633 -0.53386813 8.2846363e-39
4.8393817 -1.3693442 -0.52415025 7.5567724e-39
4.8424435 -1.3785098 -0.52287972 9.5789344e-39
4.9091907 -1.3759243 -0.53040385 8.2000006e-39
2.7578824 -1.3363736 -0.53877813 1.2899469e-38
2.776664 -1.3399916 -0.53955942 1.2438853e-38
2.8009145 -1.3437364 -0.55804706 1.2714722e-38
4.585958 -1.3275002 -0.52981973 1.0960369e-38
4.6463566 -1.3341751 -0.52434111 9.2069135e-39
4.7110662 -1.3356661 -0.53080213 7.9208942e-39
4.7757854 -1.3398964 -0.53382826 8.7513808e-39
4.8394651 -1.3315687 -0.52383637 1.0870406e-38
4.8420315 -1.333515 -0.52306676 1.0225409e-38
4.9788103 -1.3318912 -0.52091682 1.6492871e-38
2.7529998 -1.3030534 -0.53618437 1.1792406e-38
2.7780173 -1.3008456 -0.54259121 1.1792403e-38
2.8012736 -1.2979599 -0.55550361 1.2437052e-38
4.0489006 -1.2873952 -0.52990663 1.7943438e-38
4.0959749 -1.2908494 -0.5328688 1.7852678e-38
4.5240755 -1.290814 -0.52358091 7.4617097e-39
4.5844727 -1.2991455 -0.53077805 8.0148933e-39
4.6453938 -1.2954504 -0.52316123 9.6733329e-39
4.7097454 -1.296595 -0.52865106 1.1331045e-38
4.7750931 -1.303418 -0.53389692 1.2346265e-38
4.8394084 -1.3010945 -0.52397054 1.1702375e-38
4.8419571 -1.2974319 -0.52302831 1.1702012e-38
4.911531 -1.2941117 -0.52999353 1.0967342e-38
2.7162738 -1.2672986 -0.52756923 1.1607653e-38
2.7515218 -1.2560006 -0.53530276 1.1516535e-38
2.7785971 -1.2619102 -0.53609771 1.1148111e-38
2.8010321 -1.2561139 -0.54061735 1.0964081e-38
3.8667231 -1.2465383 -0.52097368 1.7942361e-38
3.9110305 -1.2462423 -0.52897537 1.7944155e-38
3.9562538 -1.2489057 -0.53444767 1.785232e-38
3.9995992 -1.2509714 -0.53259557 1.7852322e-38
4.0025587 -1.2558209 -0.53159004 1.785232e-38
4.0486393 -1.2547394 -0.53682232 1.785232e-38
4.0957851 -1.2604096 -0.53924966 1.7760484e-38
4.1441917 -1.2636199 -0.55893278 1.7483903e-38
4.4666715 -1.2459615 -0.53345424 9.5818617e-39
4.524899 -1.2571409 -0.52498972 9.2138022e-39
4.5842776 -1.2539518 -0.53149033 9.3974845e-39
4.6453609 -1.2608312 -0.52474761 1.160944e-38
4.7090554 -1.2568961 -0.52810526 1.1426856e-38
4.7742944 -1.2566385 -0.5354445 9.5836876e-39
4.8394661 -1.2766888 -0.52624351 1.0048637e-38
4.8421779 -1.2647694 -0.52386379 9.1252458e-39
4.9120936 -1.2691598 -0.5297069 8.1107309e-39
2.7163732 -1.2301961 -0.53374624 1.188496e-38
2.7518876 -1.2245616 -0.5389812 1.1884959e-38
2.7782714 -1.2195656 -0.53838593 1.1240311e-38
2.8036416 -1.2073561 -0.54592544 1.1055561e-38
3.7818465 -1.2052329 -0.55268312 1.1967743e-38
3.8254707 -1.2020066 -0.54391819 1.5733668e-38
3.8665473 -1.2048934 -0.54775643 1.7760854e-38
3.9098499 -1.2088747 -0.54880369 1.6198572e-38
3.9554527 -1.2162336 -0.54541135 1.7116202e-38
3.9995041 -1.2228793 -0.53368819 1.748426e-38
4.0023446 -1.2222461 -0.53606296 1.748426e-38
4.0491557 -1.2222595 -0.53692198 1.7208754e-38
4.0972266 -1.2272332 -0.5371685 1.6473712e-38
4.1447983 -1.2232015 -0.54306692 1.1876955e-38
4.3523121 -1.2119533 -0.52127606 9.6740587e-39
4.409966 -1.2175057 -0.52736682 9.8584528e-39
4.4666572 -1.220952 -0.53428 9.95101e-39
4.5245242 -1.2203286 -0.52692562 9.4889654e-39
4.5844693 -1.2192497 -0.53062838 9.5815156e-39
4.6457105 -1.2188798 -0.52887684 9.0283544e-39
4.7095046 -1.2161324 -0.528184 5.9848434e-39
4.7749605 -1.2262652 -0.5354445 5.2462036e-39
4.8397484 -1.2223256 -0.54318351 9.2247478e-41
4.8412247 -1.2294209 -0.52297986 7.651894e-39
2.7587941 -1.1869739 -0.53726423 1.1609094e-38
2.7810721 -1.1798644 -0.53896505 1.1148117e-38
2.8031683 -1.1810875 -0.54128748 1.0687137e-38
3.7012017 -1.1687441 -0.54751927 1.1870869e-38
3.7413282 -1.1668711 -0.5453487 1.5925959e-38
3.7818315 -1.1693369 -0.54690605 1.3074401e-38
3.8235602 -1.1707536 -0.54768449 1.2420071e-38
3.8671782 -1.1773877 -0.54421103 1.3984484e-38
3.9105749 -1.1800294 -0.54213011 1.5371332e-38
3.9556053 -1.1849329 -0.54024732 1.5095471e-38
3.9994383 -1.1923993 -0.5299809 1.4635576e-38
4.0017805 -1.1898369 -0.53089559 1.4544098e-38
4.0488982 -1.1932138 -0.53092253 1.1787243e-38
4.0957203 -1.1757451 -0.52086151 8.5666252e-39
4.1436954 -1.1644353 -0.52729762 9.5818659e-39
4.2463317 -1.1757246 -0.52521104 1.0135038e-38
4.2995281 -1.1744392 -0.53348303 1.0411987e-38
4.3528233 -1.1814457 -0.52685845 1.0134682e-38
4.409061 -1.1880054 -0.52743089 9.9495722e-39
4.4664049 -1.1919926 -0.53354114 9.8555829e-39
4.5243435 -1.1787415 -0.52363956 8.6602809e-39
4.5845017 -1.182417 -0.5302242 7.6457759e-39
4.64536 -1.1848028 -0.52683401 3.6839058e-39
4.7091465 -1.1869397 -0.52862704 1.2882627e-39
4.7768941 -1.1992162 -0.53331453 6.4328428e-40
2.7587788 -1.1465203 -0.54686773 1.2529251e-38
2.7820492 -1.1421316 -0.5382266 1.1148117e-38
2.8038311 -1.1409208 -0.54163659 1.0779336e-38
3.5478117 -1.1212133 -0.55765963 1.4179652e-38
3.5861092 -1.1320564 -0.54953933 1.3251606e-38
3.624048 -1.1362667 -0.55217493 1.2520509e-38
3.6625233 -1.1358221 -0.54748082 1.0864982e-38
3.7012618 -1.1379945 -0.55166042 1.0679162e-38
3.7414572 -1.138299 -0.54476428 1.040186e-38
3.7820082 -1.1362821 -0.54546875 1.1136894e-38
3.8244505 -1.1406746 -0.54195219 1.1323792e-38
3.8672793 -1.1456317 -0.53546888 1.1050801e-38
3.9100044 -1.1514444 -0.5358597 9.8530101e-39
3.9544361 -1.1396711 -0.54810303 8.6613445e-39
3.9995108 -1.1378009 -0.52420449 9.0283362e-39
4.0008664 -1.1427463 -0.52399927 8.7528199e-39
4.04634 -1.1349568 -0.53040308 9.5829449e-39
4.0959549 -1.1399691 -0.52170521 9.8591717e-39
4.1450548 -1.1379045 -0.5277071 1.0135761e-38
4.1953731 -1.134339 -0.5331983 1.0227601e-38
4.2462077 -1.1421263 -0.5302242 1.0596019e-38
4.2986488 -1.1384358 -0.53604686 1.0595663e-38
4.3524141 -1.1421269 -0.52353364 1.0225798e-38
4.4087873 -1.1356921 -0.52801728 1.0226867e-38
4.4662189 -1.1360643 -0.53337407 1.0411971e-38
4.5242462 -1.1373709 -0.52436471 7.0882665e-39
4.5832529 -1.153684 -0.5306735 6.6276485e-39
4.6449776 -1.1558675 -0.53222162 5.339418e-39
2.7597051 -1.1187398 -0.53414541 1.1793125e-38
2.781774 -1.1136795 -0.539033 1.1424705e-38
2.8146918 -1.1010269 -0.53907424 1.0411268e-38
2.8483167 -1.091464 -0.53783262 8.8443009e-39
2.8950353 -1.0866011 -0.55572617 1.2071511e-38
3.3425338 -1.0840803 -0.55254507 5.7096649e-39
3.3751593 -1.0842218 -0.55778044 8.8388638e-39
3.4663103 -1.0884584 -0.54835653 1.1329183e-38
3.5118241 -1.0945547 -0.55234438 1.058661e-38
3.5493948 -1.0973399 -0.55731153 1.0218556e-38
3.5866272 -1.097344 -0.55024475 1.1598584e-38
3.6245463 -1.0989637 -0.55242425 1.0400786e-38
3.6623783 -1.098966 -0.54828703 1.0035599e-38
3.70123 -1.0950466 -0.54849917 9.119415e-39
3.7414474 -1.0980294 -0.54235113 8.7517241e-39
3.7825031 -1.1017557 -0.53696686 8.4755113e-39
3.8240106 -1.104823 -0.5353086 8.5687888e-39
3.867444 -1.0988779 -0.53387231 9.1219654e-39
3.9099109 -1.0910161 -0.53688252 9.6747832e-39
3.9540401 -1.0990396 -0.53520989 9.6751405e-39
4.0012031 -1.1056522 -0.52692121 9.7669788e-39
4.0475469 -1.0893073 -0.53525227 9.9517316e-39
4.0962338 -1.0891774 -0.52951181 1.0319797e-38
4.1452017 -1.1003658 -0.52892554 1.0319798e-38
4.1946926 -1.0991601 -0.53846091 1.0503826e-38
4.246366 -1.0989133 -0.53101742 1.0410909e-38
4.2995768 -1.093425 -0.53317744 1.0041771e-38
4.3526373 -1.096722 -0.52686518 1.0410901e-38
4.409225 -1.0954286 -0.5282706 1.0688201e-38
4.4661064 -1.1037117 -0.53409904 1.0780755e-38
4.5237613 -1.1068159 -0.52437431 9.5757254e-39
4.581831 -1.0886672 -0.53102678 1.0780032e-38
2.821002 -1.0617069 -0.53134716 9.3974746e-39
2.8594887 -1.0558747 -0.54100388 1.0227597e-38
2.8956378 -1.0515282 -0.54843289 1.0411628e-38
3.2725234 -1.0560379 -0.55041975 4.0522959e-39
3.3108497 -1.0556945 -0.55815077 2.6715139e-39
3.3441882 -1.053864 -0.55194092 7.0911195e-39
3.3761637 -1.0594128 -0.5562079 7.5510117e-39
3.4092948 -1.0592821 -0.55008233 6.3543112e-39
3.4516973 -1.0601597 -0.55170852 9.11725e-39
3.5127065 -1.0596911 -0.55172426 1.1051895e-38
3.5497339 -1.0664283 -0.55539107 1.0315064e-38
3.5863662 -1.062777 -0.5501138 9.211982e-39
3.6243644 -1.0578473 -0.54946822 8.6617061e-39
3.6621363 -1.0560365 -0.5464533 8.8460987e-39
3.7010319 -1.0549425 -0.54589409 9.0304914e-39
3.7414138 -1.0619644 -0.54063433 9.3067167e-39
3.7820475 -1.0626961 -0.53558427 9.4907507e-39
3.8240573 -1.0582196 -0.53816837 9.6747846e-39
3.8668101 -1.0538006 -0.54051334 9.6751447e-39
3.9102235 -1.0562574 -0.54060233 9.6751447e-39
3.9551837 -1.0544661 -0.5385592 9.7673432e-39
3.9994209 -1.0559778 -0.53443205 1.0136123e-38
4.0018263 -1.0513359 -0.53468484 1.004393e-38
4.04807 -1.0594848 -0.53534085 1.022796e-38
4.0961103 -1.060172 -0.53641021 1.0411991e-38
4.1454821 -1.0588682 -0.5382604 1.041235e-38
4.1953177 -1.0575807 -0.53691733 1.0504182e-38
4.2460732 -1.060074 -0.53082603 1.0133606e-38
4.299284 -1.0568719 -0.53137296 9.9481401e-39
4.3527451 -1.0581356 -0.52841115 1.0410549e-38
4.4089284 -1.0537202 -0.53035372 1.0596375e-38
4.4653597 -1.0612928 -0.53733253 1.0688209e-38
4.5240407 -1.0605893 -0.52328217 1.0780039e-38
4.5857611 -1.0576391 -0.52933431 1.0963717e-38
2.8253517 -1.0377246 -0.52175528 6.7255978e-39
2.8662622 -1.0243963 -0.53636569 9.8580913e-39
2.8993802 -1.016742 -0.54057407 9.4896689e-39
2.9355333 -1.0102423 -0.54942614 1.1056274e-38
2.9710948 -1.0142335 -0.5553391 1.1056273e-38
3.020185 -1.0145524 -0.54533041 7.0954678e-39
3.0750165 -1.0333523 -0.5433203 4.6033047e-39
3.1031599 -1.0328677 -0.54824179 2.6697118e-39
3.1591749 -1.0387913 -0.55813134 3.0384985e-39
3.1751649 -1.0340085 -0.55046695 3.6817141e-39
3.2199159 -1.0204185 -0.5519737 2.9448708e-39
3.2696464 -1.0309769 -0.55249375 1.7499233e-39
3.3066866 -1.0284379 -0.55657858 2.3927802e-39
3.3445735 -1.0147797 -0.55155909 3.2193109e-39
3.3760433 -1.0136952 -0.55757099 3.5877248e-39
3.4099994 -1.034369 -0.54992837 1.0780317e-38
3.4542477 -1.0218561 -0.55243468 6.7234482e-39
3.5137753 -1.0214331 -0.55230856 7.923425e-39
3.5488951 -1.0221385 -0.55535555 8.1067414e-39
3.5863047 -1.0226868 -0.5485242 8.569516e-39
3.6242368 -1.0211432 -0.5521419 8.6613543e-39
3.6619425 -1.0216521 -0.54784286 9.1226912e-39
3.7012787 -1.0247307 -0.54897535 9.3070825e-39
3.7408109 -1.0278382 -0.54196328 9.7669816e-39
3.7818959 -1.0229248 -0.54205757 9.7669802e-39
3.8238328 -1.0186129 -0.54757172 9.767339e-39
3.8673224 -1.0198605 -0.5436393 9.674786e-39
3.9102373 -1.0217949 -0.54514462 9.6751475e-39
3.9552398 -1.0199265 -0.54138374 9.6755077e-39
3.9995348 -1.0139385 -0.54226118 9.7680606e-39
4.0015936 -1.0180143 -0.54107803 9.8595402e-39
4.0485148 -1.0227946 -0.54028934 1.004393e-38
4.0961242 -1.0193691 -0.54129267 1.0136124e-38
4.1450629 -1.0201825 -0.53569072 1.0411628e-38
4.1952076 -1.0198274 -0.53840214 1.0503105e-38
4.2466588 -1.0206887 -0.53858727 1.0318356e-38
4.2994714 -1.0197058 -0.53599149 1.0225805e-38
4.3526101 -1.0186169 -0.53146905 1.0318718e-38
4.409101 -1.0190248 -0.53087431 1.0687497e-38
4.4662328 -1.0095631 -0.53784245 1.0687136e-38
4.524334 -1.0178336 -0.52342808 1.0871161e-38
4.5857787 -1.0284346 -0.5297026 1.0962634e-38
2.8724072 -0.98866355 -0.52930456 9.3052762e-39
2.8995957 -0.99351537 -0.53211999 8.1996475e-39
2.9267213 -0.99278331 -0.53613007 8.4762344e-39
2.9737847 -0.99750489 -0.54931021 1.0041764e-38
3.1056616 -0.96021259 -0.5597415 1.077897e-38
3.1880074 -0.99953055 -0.53897578 2.3917138e-39
3.2790904 -0.96739745 -0.55438042 7.2733808e-39
3.3114915 -0.9743613 -0.55867511 6.9975142e-39
3.3445683 -0.98411548 -0.55110669 5.6135078e-39
3.3761847 -0.9769904 -0.55752861 7.2751801e-39
3.4497116 -0.98162746 -0.554129 8.0149017e-39
3.508805 -0.97652161 -0.5516392 8.8461001e-39
