# .PCD v0.7 - Point Cloud Data file format
VERSION 0.7
FIELDS x y z rgb
SIZE 4 4 4 4
TYPE F F F F
COUNT 1 1 1 1
WIDTH 1069
HEIGHT 1
VIEWPOINT 0 0 0 1 0 0 0
POINTS 1069
DATA ascii
3.998481 -0.019496424 1.0458478 1.8432642e-38
4.0394325 -0.024793779 1.0611115 1.9078728e-38
4.0648985 -0.049482271 1.0171379 1.8709588e-38
4.0891461 -0.03019573 1.0645981 1.8893264e-38
3.9021003 0.02806228 1.051052 1.8248973e-38
3.9555511 0.018802414 1.0355601 1.8340448e-38
4.0284338 0.015797507 0.98930538 1.7694721e-38
3.9121273 0.055636462 1.0441362 1.8156417e-38
3.9825461 0.029342521 0.95975637 1.7696155e-38
3.8711762 0.10505483 1.0452789 1.7972026e-38
3.9022472 0.087416999 1.0677905 1.8339372e-38
3.7385838 0.1340151 1.0473268 1.8064583e-38
3.7942326 0.12314486 1.0232447 1.787983e-38
3.8434217 0.14051689 1.0244769 1.787875e-38
3.8586233 0.13027169 1.0655736 1.7878751e-38
3.7503285 0.16786042 1.0292218 1.8063501e-38
3.7744362 0.18743858 1.049421 1.8523755e-38
3.8163424 0.18608055 1.0522189 1.8154973e-38
3.7493629 0.19984519 1.0360912 1.9631184e-38
3.7743556 0.21220367 1.0591257 1.9540069e-38
3.81635 0.20072532 1.0520729 1.8523036e-38
4.7541118 0.20737305 1.0342882 2.0826847e-38
4.8337045 0.22762455 1.0749317 2.1010879e-38
4.7442899 0.22824439 1.0332856 2.2122637e-38
4.7507334 0.27676561 1.0344011 2.1385081e-38
4.7633815 0.28891215 1.0557982 2.1015939e-38
4.803781 0.26490766 1.0232171 2.1384361e-38
4.8184662 0.32681158 1.0435995 1.8246826e-38
4.8076391 0.38636285 1.0549713 1.8430849e-38
4.7667923 0.40946341 1.0436068 1.8615238e-38
4.8229508 0.40632248 1.0427685 1.8615238e-38
4.7657456 0.44474235 1.0557313 1.8799269e-38
4.8293114 0.44054675 1.0384728 1.8707434e-38
4.9008727 0.47388062 1.0601487 1.8707796e-38
4.7660155 0.50229877 1.067673 1.9167695e-38
4.7824793 0.47431573 1.0382786 1.8707435e-38
4.8954616 0.44393894 0.95065492 1.843121e-38
4.7670226 0.54559267 1.0572608 1.9260612e-38
4.7997646 0.51325154 1.0415006 1.9075859e-38
4.9007301 0.54680198 1.054355 1.9076221e-38
4.7672529 0.57158262 1.0422152 1.9261332e-38
4.8005576 0.55498946 1.0436857 1.9260612e-38
4.9004745 0.58905774 1.0715441 1.9353524e-38
4.8317451 0.59300458 1.0480962 1.9537197e-38
4.9021196 0.60177916 1.0361483 1.9352805e-38
4.8347569 0.65301949 1.0568869 1.9722308e-38
4.8972116 0.62077272 1.0376239 1.9537197e-38
4.8924274 0.67070091 1.0402155 1.9629752e-38
4.8995485 0.73410028 1.0490422 1.9906339e-38
4.8994741 0.78782749 1.0558434 2.0090373e-38
4.9474669 0.77905214 1.0146147 1.9629753e-38
4.8992996 0.82077432 1.0628182 2.009109e-38
4.9555101 0.81360888 1.0289673 1.9814144e-38
4.899539 0.85196573 1.0607946 2.0275121e-38
4.9577155 0.84883267 1.0329847 1.9998534e-38
4.956049 0.89281112 1.0336795 2.0090731e-38
4.9581437 0.93975955 1.0370557 2.0090371e-38
4.8991866 0.96648884 1.0605022 2.0367318e-38
4.9565878 0.97726661 1.0335442 2.0090731e-38
4.9010143 1.0175161 1.0531263 2.0735016e-38
4.9586291 1.0144827 1.0370275 2.0182927e-38
3.4010291 1.0796653 1.0414081 2.1103804e-38
4.9576211 1.0518479 1.0374721 2.0274764e-38
3.3979015 1.1162881 1.0448514 2.2027928e-38
3.4400945 1.084088 1.0211792 2.1010893e-38
3.4674246 1.1148084 1.0656952 2.0919056e-38
3.5018461 1.113269 1.0471314 2.1011251e-38
4.9582119 1.0883954 1.0372998 2.0182927e-38
3.3904579 1.1405425 1.0519507 2.184354e-38
3.4353654 1.0858417 1.0016583 2.1566593e-38
3.4669454 1.1280975 1.07295 2.1194921e-38
4.9488149 1.1241939 1.0290645 1.9998537e-38
3.2649684 1.1987743 1.0498363 2.018364e-38
3.3332174 1.1540372 1.0094278 1.9906696e-38
3.3545687 1.1945446 1.0378977 2.0183286e-38
3.3896227 1.1660589 1.0434304 2.1106321e-38
3.4447293 1.0683947 0.95450652 2.1106683e-38
4.9435921 1.1494262 1.0170842 1.9998177e-38
3.178875 1.2364982 1.0468789 2.0091452e-38
3.2358668 1.2301329 1.0644239 2.0183284e-38
3.2804654 1.2279032 1.0144081 1.9907056e-38
3.3071465 1.2231905 1.0524085 2.0091447e-38
3.3323753 1.2094394 1.0574939 2.0183643e-38
3.3651199 1.2089597 1.0596559 2.027548e-38
4.951004 1.1903653 1.0249153 1.990634e-38
3.1801634 1.2465287 1.0279603 1.9998893e-38
3.2175779 1.2518021 1.0518345 2.0091449e-38
3.2688386 1.2537247 1.0070138 1.9906697e-38
3.3004894 1.2477117 1.0752896 2.009145e-38
4.9605546 1.2498757 1.0419593 2.0182568e-38
3.1174557 1.3129221 1.0562658 1.9630838e-38
3.1354728 1.2669061 1.0172908 1.9998534e-38
3.1930733 1.2817951 1.0378186 1.9998893e-38
3.208756 1.285511 1.0581373 2.0091447e-38
4.9456596 1.2727108 1.0186491 1.9998177e-38
3.0764337 1.2909616 1.0200481 1.6499453e-38
3.0974033 1.3018228 1.0280744 1.686895e-38
3.1357849 1.2933418 1.0267993 1.8341547e-38
3.177285 1.3226516 1.0556147 1.999889e-38
3.2063708 1.3330048 1.0614433 2.0274754e-38
4.9363708 1.067187 0.91167212 1.8983662e-38
2.9533684 1.3880441 1.0511596 1.4477291e-38
3.0008771 1.3143402 0.9672516 1.5027215e-38
3.0349395 1.3443255 1.0273125 1.5396e-38
3.0737615 1.3167412 1.0221853 1.6776398e-38
3.0972683 1.3299958 1.0439329 1.5673301e-38
2.9143891 1.4133065 0.96531808 1.3092924e-38
2.9426339 1.422554 1.0501736 1.3277306e-38
2.9738479 1.3986417 1.028615 1.5302357e-38
3.0358706 1.4104664 1.0709116 1.5674755e-38
3.060498 1.4013371 1.0731511 1.5304891e-38
3.0925288 1.4015863 1.0784593 1.6501269e-38
2.7950535 1.4337089 0.98476058 1.9723382e-38
2.7241395 1.4785209 1.0599412 1.8159313e-38
2.7651684 1.3958693 0.99713302 1.4569835e-38
2.825537 1.4661922 1.0530123 1.475459e-38
2.8267679 1.3880298 0.97557741 1.38312e-38
2.8908188 1.4302373 1.0037622 1.3093636e-38
2.9413712 1.447835 1.0420389 1.3829035e-38
3.1172414 1.3675988 0.9330653 1.1066781e-38
2.7192969 1.452162 1.0055454 1.7607221e-38
2.7385464 1.4723201 1.0369946 1.769978e-38
2.7799933 1.4493729 1.0327891 1.6226104e-38
2.8078458 1.4536928 1.0349122 1.5214119e-38
2.8998361 1.4824158 1.0664237 1.3279465e-38
2.9324358 1.4834499 1.0650232 1.4017381e-38
2.7456498 1.5218761 1.0570445 1.6779631e-38
4.766542 2.111218 -0.3452076 7.8337405e-39
4.0940447 -1.3448539 -0.30047223 8.2014496e-39
4.4153066 -2.3051159 0.93913144 1.9443935e-38
4.2999258 -2.574959 1.1021233 2.1010184e-38
4.3573523 -2.5845604 1.0786538 2.0917987e-38
4.2471466 -2.5348604 1.1063883 2.1010542e-38
4.2821431 -2.5299277 1.0875087 2.0917987e-38
4.3543129 -2.5526221 1.0860853 2.0918704e-38
4.2462783 -2.5100644 1.0986261 2.1010181e-38
4.2991772 -2.5017095 1.0831227 2.0826868e-38
4.3532028 -2.5077069 1.0802641 2.0919782e-38
4.1965795 -2.465996 1.1051509 2.1010541e-38
4.2990942 -2.4772313 1.0831442 2.0827592e-38
4.4604139 -1.0544879 1.0929544 3.4087132e-39
4.5188913 -1.0415504 1.1021698 3.5909492e-39
4.5208688 -1.041217 1.1021383 3.4991165e-39
4.5801749 -1.0545524 1.0994486 3.4991165e-39
4.6419301 -1.0517193 1.1068789 3.5909506e-39
4.4049187 -1.0191616 1.1084512 3.4072796e-39
4.4621563 -1.0234786 1.1039155 3.407281e-39
4.5192952 -1.0160925 1.1025374 3.4072768e-39
4.5833726 -0.99942052 1.0826277 3.6831463e-39
4.6399145 -1.0154014 1.1104069 3.8664515e-39
4.6437449 -1.0114806 1.0891726 3.7753433e-39
4.7093329 -0.94698077 1.0385756 3.9593744e-39
4.4068065 -0.99938679 1.0958737 3.5905961e-39
4.6398554 -0.98893046 1.0839479 3.5916779e-39
4.6448493 -0.97026801 1.0639 3.8675375e-39
4.7073975 -0.93389517 1.0497558 3.9597331e-39
4.6397157 -0.94483799 1.0839731 3.959743e-39
4.6374917 -0.934277 1.0327313 4.1437657e-39
4.7071424 -0.90686738 1.0876523 4.144123e-39
4.6452312 -0.88227499 0.93976909 4.3288828e-39
4.7065964 -0.87553847 1.0810692 5.3386963e-39
4.7693138 -0.89663434 1.1053288 7.1778949e-39
4.6429715 -0.87354118 1.1014972 7.1796816e-39
4.7064371 -0.81689042 1.0842333 1.566388e-38
4.7678428 -0.86882985 1.0826193 1.5851162e-38
4.6412272 -0.80330014 1.1017604 1.6298511e-38
4.7068734 -0.76099902 1.0866909 1.6028385e-38
4.7669139 -0.78055692 1.0777206 1.7592103e-38
4.6415534 -0.76807177 1.1164834 2.0182568e-38
4.703814 -0.73174959 1.0719955 1.9998177e-38
4.7607651 -0.75184387 1.0826534 2.0366599e-38
4.7047644 -0.75635999 1.102332 2.0644265e-38
4.7602272 -0.71732122 1.0800472 2.0921571e-38
4.7540092 -0.67311341 1.069755 2.1198519e-38
4.7034435 -0.65313524 1.1027457 2.1751336e-38
4.7642031 -0.64746755 1.0888487 2.1567303e-38
4.8379812 -0.650235 1.0926799 2.1844246e-38
4.7683129 -0.61703658 1.0985193 2.1659859e-38
4.78686 -0.53867882 1.0197217 2.1106687e-38
4.7571187 -0.56008816 1.0793846 2.1567662e-38
4.8356333 -0.58498681 1.0963429 2.1751696e-38
4.7708788 -0.52629113 1.0805832 2.1568022e-38
4.8357038 -0.54909915 1.0944685 2.1659859e-38
4.7628851 -0.48320723 1.0759513 2.1383631e-38
4.7054234 -0.45633152 1.0991938 2.1659859e-38
4.7689838 -0.44708949 1.0858718 2.1383272e-38
4.7023058 -0.40248525 1.0814193 2.1475109e-38
4.7582216 -0.40290338 1.0810996 2.119888e-38
4.6876793 -0.33200997 1.0613941 2.1106685e-38
4.7650905 -0.37748879 1.0794122 2.1198521e-38
4.5774069 -0.32340518 1.0872667 2.1475466e-38
4.638979 -0.33578712 1.0969191 2.1475466e-38
4.6419668 -0.28643873 1.0740659 2.1291075e-38
4.6980147 -0.30971032 1.0661265 2.1106324e-38
4.7678776 -0.35334206 1.113784 2.1750973e-38
4.4588728 -0.2824198 1.0930549 2.1383271e-38
4.5178442 -0.28678593 1.0981797 2.1383631e-38
4.588048 -0.27456772 1.0652332 2.1291074e-38
4.6399121 -0.30910575 1.1195101 2.1475828e-38
4.4184713 -0.22755916 1.0509031 2.0461675e-38
4.4594731 -0.25519964 1.1002985 2.1106684e-38
4.5178022 -0.26850313 1.0979636 2.119924e-38
4.3597498 -0.13835941 1.0442896 1.9999975e-38
4.4034214 -0.22213259 1.0773355 2.0276563e-38
4.4590945 -0.23213696 1.1101083 2.0645709e-38
4.3162708 -0.14125076 1.033645 2.0739342e-38
4.359869 -0.16748427 1.0749509 2.0461316e-38
4.4038281 -0.19623697 1.112658 2.0459874e-38
4.1859355 -0.12557915 1.106534 1.9724471e-38
4.2386899 -0.13086048 1.1028425 1.981702e-38
4.2408304 -0.12951052 1.1015307 1.9724824e-38
4.3009796 -0.1350681 1.0668422 2.0002494e-38
4.1378326 -0.09673921 1.0930657 1.7880919e-38
4.1983328 -0.11855663 1.0723789 1.8617758e-38
4.2389317 -0.10946748 1.0989249 1.954007e-38
4.293169 -0.1109553 1.0850058 1.7510705e-38
4.039433 -0.046080161 1.1027955 1.9356039e-38
4.040782 -0.045859702 1.1037564 1.9447877e-38
4.0990443 -0.057812221 1.0685471 1.8802146e-38
4.1620951 -0.071721338 1.0614742 1.8525561e-38
4.1884789 -0.07767868 1.1065361 1.9167693e-38
3.993485 -0.0013498953 1.0992695 1.8711033e-38
4.0394092 -0.018480584 1.099894 1.8894342e-38
4.0531158 -0.037651874 1.0584767 1.8525561e-38
4.1058893 0.0081821838 1.0754124 1.8525921e-38
3.9546289 0.040575128 1.0881063 1.8802869e-38
4.0066891 0.0082011521 1.0719248 1.8618478e-38
4.0395575 0.0002037473 1.1098484 1.9264199e-38
4.0740333 -0.040203478 1.0191596 1.8157496e-38
3.9125392 0.059832074 1.0777122 1.7973481e-38
3.9665601 0.033580743 1.0682513 1.686966e-38
3.8153038 0.11334385 1.110153 1.3922312e-38
3.8782585 0.071192794 1.0631917 1.6592349e-38
3.9026608 0.090521708 1.0991026 1.8249344e-38
3.7331469 0.15243416 1.0871526 1.5211961e-38
3.7915316 0.14240512 1.0686603 1.5395269e-38
3.8377557 0.1171999 1.0619254 1.6406526e-38
3.8591266 0.12996331 1.0961373 1.7881272e-38
3.7442818 0.19608045 1.0781089 1.8065323e-38
3.8016269 0.19065985 1.0582341 1.6317577e-38
3.7330816 0.21694888 1.0984161 1.8986186e-38
4.7670541 0.22664681 1.0991638 1.953719e-38
3.7748899 0.24108095 1.112457 2.2851561e-38
4.7693686 0.23650548 1.052158 2.2395608e-38
4.8332787 0.26128793 1.1057916 2.2398865e-38
4.8272223 0.27436486 1.0870233 2.1752783e-38
4.8150973 0.3241297 1.072125 1.8524493e-38
4.8083582 0.36656794 1.0734019 1.833865e-38
4.8999906 0.38095459 1.1044447 1.8523401e-38
4.8143258 0.40461177 1.0710411 1.8339012e-38
4.900743 0.42253646 1.1089466 1.8523403e-38
4.7661896 0.45668808 1.0965762 1.8891825e-38
4.8152823 0.44379497 1.0756316 1.8615238e-38
4.9001379 0.44986814 1.1074357 1.8707434e-38
4.7654452 0.50065184 1.0966285 1.9168415e-38
4.8294787 0.48451459 1.086138 1.8984022e-38
4.8713326 0.40299976 1.0362182 1.8062425e-38
4.7661896 0.55353451 1.0959948 1.9721229e-38
4.8260188 0.51586092 1.0767277 1.9168416e-38
4.8999567 0.55159384 1.1084485 1.953648e-38
4.8127627 0.56069958 1.0833983 1.9353166e-38
4.9007058 0.58882266 1.1049993 1.9537196e-38
4.8319044 0.61787117 1.1022199 1.9721947e-38
4.8543839 0.56970173 1.0348417 1.9076578e-38
4.8969007 0.63374621 1.0747657 1.9537556e-38
4.8418236 0.66802287 1.0613577 1.9537556e-38
4.9702406 0.70084184 1.1026571 1.9814503e-38
4.9023871 0.73747432 1.0902542 1.9998176e-38
4.9421191 0.70599735 1.0676463 1.9722309e-38
4.9526978 0.75232446 1.0738803 1.9906342e-38
4.8988676 0.82148629 1.1099654 2.0459154e-38
4.9519672 0.78652477 1.0727469 1.9998536e-38
4.9658546 0.82301408 1.0725594 2.0182927e-38
4.9462161 0.86774856 1.071633 2.0275124e-38
4.9664707 0.9152267 1.0723895 2.0275483e-38
4.9373579 0.95340633 1.0732536 2.036732e-38
4.9663835 0.9914102 1.0739546 2.0367318e-38
4.9663453 1.0330048 1.0838597 2.0459515e-38
3.3982139 1.1141741 1.1118557 2.119492e-38
3.4225705 1.1065372 1.0920129 2.082722e-38
3.4658687 1.0956775 1.0855182 2.082686e-38
4.9521565 1.0684707 1.079414 2.036732e-38
3.3006701 1.1597515 1.0877923 2.1384353e-38
3.3355634 1.1592237 1.0981562 2.1751696e-38
3.3944049 1.1547261 1.0677496 2.1843541e-38
3.427726 1.1301738 1.0590788 2.1658067e-38
3.4803064 1.1225787 1.0746078 2.0735026e-38
4.965333 1.0912247 1.0705533 2.0367317e-38
3.2394502 1.1990118 1.0913776 2.018364e-38
3.2692535 1.1979767 1.1113853 2.0183643e-38
3.2959926 1.187574 1.0911469 2.0183284e-38
3.2977045 1.1783651 1.0013551 1.9907058e-38
3.3849292 1.1867462 1.0822113 2.1291075e-38
3.3867016 1.1595285 1.0542092 2.1475112e-38
4.9236941 1.0757544 1.0406927 2.0182567e-38
3.2377818 1.2307111 1.0916272 2.0091449e-38
3.2602136 1.2000318 1.0724387 1.9999253e-38
3.3073103 1.2124829 1.0846523 2.0183283e-38
3.3244634 1.1982697 1.0468644 1.9907056e-38
3.3761711 1.2084119 1.0981848 2.0368036e-38
3.4012191 1.2090329 1.1141421 2.0552786e-38
4.8966918 1.0146915 0.97025502 1.9905979e-38
3.1497862 1.2721236 1.0979294 2.0275118e-38
3.2189207 1.2513593 1.0828363 2.009109e-38
3.2493315 1.2006217 1.0575202 1.9907056e-38
3.3017836 1.2482429 1.1125894 2.009145e-38
4.9514904 1.2301183 1.0742536 2.0366599e-38
3.1102226 1.3173219 1.0927418 1.9998896e-38
3.1392159 1.2337942 1.044824 1.9906339e-38
3.173382 1.2586076 1.0694742 1.9998534e-38
3.2111285 1.2724684 1.0898763 2.0091089e-38
3.2388756 1.2262545 1.0665742 1.9906699e-38
4.9524655 1.2677015 1.0743866 2.0366599e-38
3.0320966 1.3530812 1.1000595 1.9907774e-38
3.0653138 1.3525584 1.0827866 1.7606509e-38
3.1162541 1.342062 1.0980175 1.8987269e-38
3.1619225 1.268924 1.0542336 1.880252e-38
3.1781816 1.3287349 1.1075827 1.9907058e-38
3.2076194 1.321502 1.1180027 2.0182208e-38
4.9636903 1.2989094 1.0724665 2.0182568e-38
2.9579327 1.3950896 1.0945934 2.0091089e-38
2.9805381 1.3947374 1.0871774 1.935677e-38
3.0438027 1.3879479 1.0848554 1.8159316e-38
3.0494814 1.3722861 1.0644213 1.7882735e-38
3.1059365 1.3621069 1.085719 1.7606868e-38
3.1321411 1.3739555 1.0897354 1.733136e-38
2.9044471 1.4382946 1.0813854 1.8622082e-38
2.9516728 1.4308971 1.0980144 1.9264211e-38
2.9605072 1.3606501 1.0306602 1.861957e-38
3.0235956 1.4051402 1.0926967 1.8711407e-38
3.0386891 1.3755319 1.0645927 1.7238809e-38
3.0927653 1.4038972 1.1000065 1.5674744e-38
3.1270988 1.403507 1.0994381 1.3833721e-38
4.9654355 1.3683528 1.0711932 2.0274045e-38
2.740382 1.4788356 1.100323 1.9259155e-38
2.7715483 1.4726614 1.0868882 1.9814858e-38
2.8360562 1.4549726 1.0905722 1.9814493e-38
2.897521 1.4356321 1.0740449 1.8711402e-38
2.9359818 1.4341683 1.0785826 1.7976361e-38
2.947067 1.3489132 1.0095115 1.8251865e-38
3.0098598 1.4434904 1.1177778 2.0090727e-38
4.9374499 1.2141737 0.98139536 1.9445003e-38
2.7696157 1.4655946 1.0450687 1.9631184e-38
2.7199869 1.4619642 1.0669661 1.9446068e-38
2.7778296 1.4646993 1.0496495 1.9630105e-38
2.8313038 1.4803658 1.0905142 1.9907414e-38
2.847631 1.4840193 1.0790417 1.9448239e-38
2.8983207 1.4863243 1.0990763 1.7607224e-38
2.9278197 1.4689233 1.0910789 1.7790898e-38
4.968977 1.4866643 1.0872539 2.0274049e-38
2.7447932 1.5215268 1.0922444 2.0091805e-38
4.9990907 1.1164728 0.96083558 1.8246466e-38
4.3072505 -2.498235 1.1200246 2.0642117e-38
4.3535876 -2.5869653 1.1356182 2.1010538e-38
4.3007326 -2.5360024 1.1221294 2.0733954e-38
4.3551188 -2.556921 1.1463881 2.0918708e-38
4.2466812 -2.5091493 1.1384028 2.1010541e-38
4.5814991 -1.0889007 1.1302865 3.5916625e-39
4.4619112 -1.0457323 1.132493 3.5902276e-39
4.5189862 -1.0467322 1.1354393 3.3154427e-39
4.5576386 -1.0706613 1.074536 3.6838665e-39
4.4050345 -1.0212555 1.1349102 3.3150826e-39
4.4620972 -1.0199007 1.1357075 3.315084e-39
4.518971 -1.0157483 1.1449971 3.4072754e-39
4.5788927 -1.0105728 1.1192868 3.4991137e-39
4.6398826 -1.0154216 1.1457057 3.6824218e-39
4.6420588 -1.0151469 1.1452368 3.5909506e-39
4.7050772 -1.0110495 1.1438322 3.5913136e-39
4.6307135 -0.8966307 1.0514438 3.9600933e-39
4.7011857 -0.98013717 1.1250262 3.7757006e-39
4.6398134 -0.92721355 1.1547068 4.051926e-39
4.6418142 -0.93144399 1.1488 4.05157e-39
4.7038631 -0.93150401 1.1159437 4.1437629e-39
4.7696872 -0.93992853 1.1475586 4.1441202e-39
4.5798793 -0.91509962 1.1565641 4.0515728e-39
4.6396461 -0.892066 1.1548109 3.4076608e-39
4.6411185 -0.89174521 1.1546197 3.7735678e-39
4.7018471 -0.89469004 1.126123 4.7873302e-39
4.7768593 -0.8679592 1.09605 6.5357794e-39
4.6419649 -0.85586202 1.1368412 1.501743e-38
4.7045603 -0.8596105 1.1428171 1.538802e-38
4.7737966 -0.8057673 1.0999721 1.5940478e-38
4.6399302 -0.80417556 1.1376479 1.8522674e-38
4.6418982 -0.83822513 1.1368514 1.5666415e-38
4.6967177 -0.8230108 1.1073583 1.6769522e-38
4.770041 -0.8144908 1.1426038 1.8429058e-38
4.6396275 -0.76881194 1.12002 2.0275481e-38
4.6404428 -0.78630006 1.1552136 1.9720511e-38
4.6999373 -0.7792834 1.1097929 1.9998176e-38
4.7705097 -0.77863014 1.1320488 2.036768e-38
4.7766371 0.14611511 0.65991974 1.6128481e-38
4.6979589 -0.75241971 1.1089356 2.0644625e-38
4.7705793 -0.70285386 1.1172121 2.1013408e-38
4.7723279 -0.65578264 1.1038083 2.1198521e-38
4.7695732 -0.63851374 1.124137 2.1567302e-38
4.7052011 -0.63079822 1.1527321 2.1568382e-38
4.7710104 -0.58290148 1.114699 2.1567305e-38
4.8242998 -0.63706428 1.0073833 2.0553513e-38
4.7067041 -0.56366491 1.1527741 2.1660221e-38
4.7717319 -0.54858357 1.1157464 2.1567664e-38
4.8359389 -0.59311563 1.1337413 2.1843892e-38
4.703393 -0.54100543 1.1519364 2.1660218e-38
4.770371 -0.51322526 1.1157178 2.1568022e-38
4.8371024 -0.52240592 1.1292396 2.1752058e-38
4.768734 -0.49037865 1.1308016 2.1568022e-38
4.7706323 -0.436564 1.1203854 2.138363e-38
4.7699275 -0.41582876 1.1255914 2.1382912e-38
4.7676873 -0.3765038 1.142665 2.138363e-38
4.6388907 -0.32736194 1.1359473 2.1475108e-38
4.6407876 -0.32696572 1.1401846 2.1475106e-38
4.7024474 -0.35344636 1.1102446 2.1106684e-38
4.7670913 -0.35297385 1.116637 2.1015206e-38
4.517714 -0.28560221 1.1319914 2.1383271e-38
4.5801797 -0.31760243 1.1133294 2.1106684e-38
4.6389976 -0.30970895 1.1531005 2.1475466e-38
4.7009306 -0.31316614 1.153046 2.1475468e-38
4.4596992 -0.25295538 1.1355236 2.1199238e-38
4.5255508 -0.24139525 1.1091626 2.1014847e-38
4.522254 -0.26854575 1.1417835 2.1291435e-38
4.3824005 -0.189037 1.1081711 2.036876e-38
4.4595923 -0.23052697 1.1386452 2.0829738e-38
4.2917085 -0.16234291 1.1340489 2.1015569e-38
4.3396835 -0.19694106 1.1024628 2.0460956e-38
4.4023566 -0.19523929 1.144272 2.0368039e-38
4.2383714 -0.12947865 1.1247904 1.9725186e-38
4.2998362 -0.12228556 1.1151006 2.009397e-38
4.2021451 -0.07815104 1.0998878 1.9448232e-38
4.2386227 -0.10499446 1.1429653 1.972446e-38
4.2524686 -0.044028465 1.0951077 1.9263483e-38
4.2933187 -0.11049676 1.1500765 1.9632983e-38
4.0396204 -0.046233851 1.1293864 1.9816291e-38
4.0409455 -0.045846242 1.1357543 1.9724461e-38
4.1046338 -0.057505 1.1049464 1.9447516e-38
4.1427994 -0.088514276 1.1202921 1.9540072e-38
4.1885376 -0.077513777 1.1433456 1.9540072e-38
3.9936266 -0.00030910783 1.1387454 1.9724104e-38
4.0392938 -0.016039688 1.1400573 1.9724103e-38
4.057178 -0.0043020663 1.1115309 1.9447876e-38
4.0900536 -0.042111568 1.1203912 1.954007e-38
3.9479072 0.029131437 1.1422493 1.9908486e-38
4.0032334 -0.0026102986 1.1085691 1.9263845e-38
4.0393553 0.010541269 1.1488127 1.9632267e-38
4.0584593 0.0040393653 1.1123993 1.9447876e-38
3.9350853 0.062700659 1.052644 1.57662e-38
3.9528649 0.056709532 1.1271402 1.6780345e-38
3.9948361 0.046148617 1.1448417 1.595311e-38
3.8677213 0.12569432 1.1217115 1.4292881e-38
3.9215474 0.099962234 1.1009849 1.4661657e-38
3.9472771 0.08903484 1.1483425 1.3009697e-38
3.7750225 0.15495096 1.1267766 1.3835496e-38
3.8295949 0.12983432 1.0949639 1.3097228e-38
3.8724108 0.13469315 1.1161834 1.5029715e-38
3.7342167 0.19521719 1.1359708 1.7421745e-38
3.7807989 0.16046479 1.0931624 1.6041702e-38
3.8215008 0.15646294 1.1339507 1.6318282e-38
3.7244756 0.23104939 1.0852474 1.8339377e-38
3.7962084 0.19971175 1.095768 1.7053327e-38
3.815932 0.22559302 1.1437052 1.7698692e-38
3.8135123 0.22919427 1.0855567 1.9442121e-38
3.8166759 0.24424309 1.1538559 1.9999964e-38
4.7625294 0.26456982 1.0932347 2.1564411e-38
4.8310642 0.2533356 1.1272178 2.2491416e-38
4.8317976 0.30636162 1.1200216 2.1753864e-38
4.8337755 0.33703291 1.1003116 1.9539372e-38
4.8988395 0.36757842 1.1230785 1.8430487e-38
4.8331652 0.43292803 1.1303747 1.8707434e-38
4.8923903 0.38945454 1.1181365 1.8338651e-38
4.8326631 0.45978945 1.1336216 1.8983662e-38
4.8621655 0.34733579 1.0561903 1.7877673e-38
4.7651062 0.50273228 1.1353748 1.9444645e-38
4.8324261 0.5018242 1.138244 1.9260611e-38
4.8313537 0.44467953 1.0787913 1.8523044e-38
4.8260121 0.5182175 1.1044853 1.9260252e-38
4.9000969 0.54601026 1.143043 1.9536839e-38
4.8311009 0.57975942 1.1261168 1.9537558e-38
4.8738003 0.56976992 1.1160653 1.9445002e-38
4.8317246 0.62015557 1.1441414 1.9813787e-38
4.8903179 0.57072711 1.0750191 1.9353166e-38
4.8338165 0.67119813 1.1299858 1.9998178e-38
4.8828955 0.6437068 1.1233985 1.9721589e-38
4.8327689 0.69117153 1.1421472 1.9998536e-38
4.8928909 0.67112863 1.1167507 1.9721949e-38
4.9643569 0.68165678 1.0986415 1.9721589e-38
4.899507 0.72339135 1.1462209 1.9998537e-38
4.9639606 0.71895123 1.1105094 1.9814144e-38
4.8994823 0.78293991 1.1275649 2.0183287e-38
4.9357357 0.75514919 1.1096065 1.9814505e-38
4.8994179 0.81218541 1.1281617 2.0275486e-38
4.9629021 0.79210281 1.1095732 2.0182568e-38
4.949163 0.83002985 1.1108984 2.0183287e-38
4.9507508 0.86889941 1.1059887 2.0367321e-38
4.9429693 0.91379404 1.104076 2.0367678e-38
4.9410977 0.94828522 1.0974299 2.0275484e-38
4.9606819 0.99327707 1.1109171 2.0367321e-38
4.9548359 1.0166322 1.0981388 2.0367321e-38
3.3932281 1.0982455 1.1399033 2.1010893e-38
3.4301944 1.0742781 1.094805 2.064247e-38
3.4598255 1.1261417 1.0915262 2.0642469e-38
4.9448156 1.0646074 1.1046788 2.0459514e-38
3.3980427 1.1494242 1.1466163 2.2026852e-38
3.4299521 1.11958 1.113451 2.1472955e-38
3.4508343 1.1365501 1.0948391 2.0826861e-38
4.9479146 1.1056097 1.1103573 2.036732e-38
3.2808468 1.1522152 1.0910951 1.9998892e-38
3.3822935 1.175891 1.1263822 2.16595e-38
3.4033787 1.1414788 1.1015918 2.1750984e-38
3.4665427 1.1675557 1.1468198 2.2304161e-38
4.9600005 1.1440098 1.1144543 2.036696e-38
3.2594845 1.1382816 1.0689281 1.9906697e-38
3.2983813 1.2060217 1.1256087 2.0091089e-38
3.3310544 1.157451 1.0792359 1.9906697e-38
3.387656 1.1769342 1.1179693 2.0553869e-38
3.4018533 1.2091593 1.1484417 2.1295038e-38
3.2391102 1.2727478 1.1285909 2.0183282e-38
3.2516587 1.1507339 1.0613991 1.98145e-38
3.300626 1.2595966 1.1471151 2.0183283e-38
4.9615436 1.2317624 1.1081243 2.0458795e-38
3.0907214 1.318899 1.1253581 2.0182927e-38
3.147939 1.3143531 1.1269878 2.0091089e-38
3.1649883 1.3030189 1.102581 1.9998533e-38
3.2216697 1.2827183 1.1181017 1.9998892e-38
3.264797 1.2470326 1.1070879 1.9998892e-38
3.2999961 1.2875736 1.1507127 2.0183284e-38
4.9617381 1.2724977 1.1112295 2.036696e-38
3.1166387 1.3487035 1.1387299 2.009073e-38
3.1335251 1.3371952 1.1086464 1.9998534e-38
3.1563561 1.3188258 1.0930501 1.9906697e-38
3.2146699 1.3238535 1.1428609 2.0182565e-38
3.2422178 1.3229833 1.1456591 2.0274038e-38
4.9588327 1.312153 1.1187224 2.036696e-38
3.0443993 1.3468159 1.0993973 1.9722668e-38
3.0450544 1.3366328 1.0912489 1.9906697e-38
3.0932512 1.3657348 1.1212544 1.9998533e-38
3.1318212 1.3683571 1.0993614 1.9814502e-38
3.1769662 1.3806469 1.1323218 2.0366236e-38
4.9438052 1.3380965 1.1109462 2.018257e-38
2.9573948 1.4289966 1.1240066 1.9998527e-38
2.9671264 1.3339818 1.0640715 1.9353158e-38
3.031563 1.4007851 1.1244304 1.9537188e-38
3.0334201 1.3300952 1.0655397 1.9722305e-38
3.091687 1.411785 1.1432618 1.999889e-38
3.1457789 1.4042428 1.1270533 1.9356766e-38
4.9474821 1.3809009 1.1090596 2.0274764e-38
2.7891057 1.4387349 1.0786724 1.834152e-38
2.8395114 1.4459354 1.1177102 1.7047555e-38
2.8531866 1.4337652 1.099381 1.8156404e-38
2.8957067 1.4413753 1.0839478 1.8982932e-38
2.9426355 1.4399422 1.1182919 1.9261317e-38
2.9688625 1.4007076 1.0974374 1.9353148e-38
3.0160384 1.4480776 1.1437988 1.9538267e-38
3.0404577 1.4464947 1.13991 2.0090727e-38
4.9614744 1.4040307 1.1039673 2.0458436e-38
2.792815 1.4471073 1.0817125 1.8155699e-38
2.776566 1.476475 1.1256566 1.8062767e-38
2.8254147 1.4830377 1.1299456 1.8429753e-38
2.852704 1.3944981 1.0140774 1.8523032e-38
2.9179008 1.4551705 1.1126287 1.8891458e-38
2.932848 1.4855781 1.142843 1.8801427e-38
4.9083738 0.79036349 0.69431132 1.7231962e-38
4.3570557 -2.5810022 1.1398401 2.0641757e-38
4.3047619 -2.5520282 1.1649442 2.0826151e-38
4.3001504 -2.5506704 1.178539 2.1010542e-38
4.3538299 -2.5571761 1.1758941 2.0918704e-38
4.5188155 -1.0437937 1.1854746 3.3147211e-39
4.5175509 -1.0134958 1.0509944 3.4072782e-39
4.5801349 -1.0572778 1.1825709 3.223603e-39
4.4624157 -1.0271132 1.1702644 3.2232457e-39
4.5186796 -1.0219557 1.1839987 3.2232457e-39
4.5214314 -1.0205871 1.1860242 3.3147225e-39
4.585041 -0.97494388 1.153203 3.5909492e-39
4.6398425 -1.015447 1.1898295 3.6820701e-39
4.6419516 -1.0151579 1.1794038 3.5909478e-39
4.7049527 -1.0134604 1.1788363 3.591308e-39
4.639864 -0.97151512 1.1872883 3.7753391e-39
4.641201 -0.97538894 1.1656616 3.683505e-39
4.7057333 -0.96343082 1.1677573 3.6835036e-39
4.5797167 -0.93263268 1.1827555 3.6842169e-39
4.639843 -0.93409628 1.1833494 3.9597331e-39
4.6418962 -0.93166178 1.1806614 3.9597345e-39
4.7027941 -0.90900928 1.1487209 4.1437643e-39
4.7445703 -0.84587997 1.0694644 4.3285143e-39
4.5795355 -0.91378164 1.1872034 4.0519302e-39
4.6397567 -0.89788789 1.1832272 3.8668229e-39
4.6418386 -0.89879644 1.1836175 3.9582996e-39
4.7046266 -0.89273769 1.1780298 5.4323325e-39
4.7690482 -0.80887562 1.0978304 6.4446599e-39
4.6393404 -0.85671383 1.1899203 1.4649735e-38
4.6404815 -0.86549258 1.1900253 1.0502017e-38
4.7044048 -0.86041474 1.1743037 1.4928477e-38
4.7604194 -0.81029856 1.1285001 1.4922377e-38
4.6395335 -0.81402326 1.1902506 1.814958e-38
4.6415205 -0.81161433 1.1899648 1.8243215e-38
4.7097535 -0.78062272 1.1052151 1.6766659e-38
4.769371 -0.81754869 1.1769615 1.9167692e-38
4.6394238 -0.78184593 1.188032 2.0181852e-38
4.641377 -0.78175527 1.1893939 2.0089655e-38
4.710207 -0.74619883 1.136319 1.9905981e-38
4.7693152 -0.77322185 1.1839409 2.073646e-38
4.6393857 -0.7511068 1.1903993 2.0828654e-38
4.6402879 -0.75105268 1.1905391 2.0919779e-38
4.7085314 -0.72373068 1.1419597 2.073682e-38
4.7690144 -0.73885167 1.1760201 2.1198159e-38
4.7644734 -0.69408023 1.1446637 2.1290356e-38
4.7045932 -0.6706953 1.1835128 2.1659498e-38
4.768733 -0.65140063 1.159302 2.1475106e-38
4.7050495 -0.63544965 1.1792848 2.1659498e-38
4.7697349 -0.60012645 1.1418177 2.1383271e-38
4.7031984 -0.57516044 1.1858487 2.1752412e-38
4.7695856 -0.56798673 1.1506188 2.1475466e-38
4.8371105 -0.58361286 1.1785402 2.1751696e-38
4.7034464 -0.53970277 1.178703 2.1844248e-38
4.770339 -0.51861954 1.1217593 2.1107404e-38
4.767828 -0.49479172 1.1553104 2.1475827e-38
4.8063521 -0.56314838 0.77558935 1.7143715e-38
4.7665505 -0.47578928 1.1599185 2.1475466e-38
4.8347497 -0.45170245 1.1816398 2.1567661e-38
4.768187 -0.41630092 1.14063 2.1106684e-38
4.8344798 -0.4244284 1.1648852 2.1383269e-38
4.7682633 -0.37258604 1.147316 2.1014847e-38
4.8345995 -0.38711789 1.1329906 2.1014847e-38
4.638658 -0.32744095 1.172962 2.1566942e-38
4.6410141 -0.32692704 1.1722646 2.1567302e-38
4.7085233 -0.3170982 1.1454716 2.1014488e-38
4.7669058 -0.34726268 1.1515675 2.1106684e-38
4.519783 -0.28544104 1.1759552 2.1475825e-38
4.5851345 -0.25308052 1.147639 2.1106684e-38
4.639142 -0.30242178 1.1800995 2.1475108e-38
4.6408167 -0.30053779 1.1811144 2.1475466e-38
4.7019286 -0.32812506 1.1585463 2.1106683e-38
4.4389267 -0.23541777 1.1220061 2.0922293e-38
4.5174379 -0.2698105 1.163618 2.119888e-38
4.5222497 -0.2685366 1.1761547 2.1474749e-38
4.4625702 -0.21718332 1.1583411 2.0737543e-38
4.5173693 -0.23336112 1.1922023 2.1107043e-38
4.3526783 -0.16595179 1.157495 2.0829738e-38
4.407743 -0.16331342 1.1535265 2.018401e-38
4.459064 -0.197969 1.1951047 2.0460597e-38
4.292901 -0.13535577 1.1641121 2.0278362e-38
4.3512497 -0.19482702 1.1334326 2.018617e-38
4.1880212 -0.093534529 1.1702131 1.9816298e-38
4.2385526 -0.094277039 1.1764544 1.9724103e-38
4.2872858 -0.099107809 1.053941 1.8618115e-38
4.2980266 -0.11337455 1.1531266 1.9447877e-38
4.0984907 -0.081977554 1.1466054 1.9632267e-38
4.1470809 -0.071349412 1.1581968 1.9631908e-38
4.2015128 -0.067374021 1.1477957 1.954007e-38
4.2401648 -0.077688754 1.1845919 1.9724461e-38
4.0393596 -0.011688117 1.1650853 1.9539711e-38
4.0413918 -0.014679471 1.1655483 1.9631547e-38
4.1092162 -0.024422381 1.1370434 1.9447154e-38
3.9483495 0.029306769 1.1631445 1.8432289e-38
4.0075784 0.050575241 1.1360592 1.8985094e-38
4.0392485 0.018407069 1.1779505 1.8893985e-38
4.056221 0.001662188 1.1308614 1.8525559e-38
4.1074295 0.042182516 1.1539278 1.9537901e-38
3.9033122 0.058040645 1.1647663 1.7235549e-38
3.9697764 0.028697601 1.116949 1.8156055e-38
3.9938455 0.055614352 1.1829293 1.8617392e-38
3.9197288 0.096662059 1.1399918 1.8248247e-38
3.9573312 0.072889432 1.1512567 1.7696155e-38
3.9926829 0.090562575 1.1921223 1.8707057e-38
3.8176389 0.1572839 1.1732202 1.8155691e-38
3.869885 0.1416091 1.1524425 1.806386e-38
3.9213479 0.14895156 1.1519183 1.7511052e-38
3.7341304 0.19536516 1.1855872 1.8248967e-38
3.7688558 0.19731753 1.1320456 1.8615959e-38
3.8232436 0.19183089 1.1502557 1.7972386e-38
3.8668387 0.19456652 1.1716231 1.8155695e-38
3.9025428 0.16172121 1.1946777 1.824825e-38
3.8676214 0.0038334578 0.86055988 1.6497258e-38
3.7719941 0.20591879 1.1586711 1.8340449e-38
3.8176527 0.20807038 1.1750274 1.8064231e-38
3.8593769 0.23299612 1.1813143 1.7695093e-38
3.7494612 0.17761886 1.029839 1.9351003e-38
3.7790847 0.23779292 1.1757383 1.8064228e-38
3.8157034 0.25337711 1.1968322 1.944284e-38
3.858691 0.26211497 1.1962292 2.0735743e-38
4.8276181 0.23618314 1.15052 2.202683e-38
4.8327017 0.29259306 1.1720427 2.2030811e-38
4.8333354 0.33102793 1.1687351 2.0739355e-38
4.8942995 0.32307276 1.1567808 2.0093626e-38
4.8979416 0.37375551 1.1518997 1.843013e-38
4.8943548 0.42788178 1.1378866 1.8523043e-38
4.8322868 0.46011472 1.1738553 1.9168416e-38
4.8970461 0.46654776 1.1620919 1.8984022e-38
4.8323965 0.50141281 1.1804106 1.9629033e-38
4.8970447 0.50600129 1.1550053 1.9168416e-38
4.9457684 0.9168067 0.81402594 1.741742e-38
4.8322163 0.55298108 1.141789 1.9353168e-38
4.896142 0.54295021 1.1538081 1.9445003e-38
4.8317623 0.59098488 1.1593976 1.9629753e-38
4.8946347 0.58325315 1.1505911 1.9537199e-38
4.8325863 0.62710565 1.1742996 1.9814146e-38
4.8740964 0.63188195 1.0875928 1.9168416e-38
4.8343573 0.66472566 1.1776915 1.9998178e-38
4.8947034 0.65620643 1.1449838 1.9629396e-38
4.8991613 0.70340097 1.1472021 1.9814144e-38
4.9050307 0.77039802 1.1281867 1.972231e-38
4.962791 0.72820008 1.1575596 1.99067e-38
4.9634318 0.76514417 1.1554418 1.990706e-38
4.9662433 0.80693203 1.1483945 2.0091092e-38
4.9691954 0.84356064 1.149752 2.0275481e-38
4.9669871 0.88757288 1.1482189 2.0275843e-38
4.9657578 0.93436205 1.1516767 2.036732e-38
4.9612594 0.96594054 1.1348988 2.018293e-38
4.9594002 0.99262667 1.1405638 2.0182928e-38
4.9625297 1.0356175 1.1341745 2.0183289e-38
4.9974055 1.0527166 1.1471816 2.0367678e-38
3.3648498 1.1190469 1.1856513 2.0827215e-38
3.4668512 1.1148834 1.1713055 2.0919417e-38
4.9622169 1.0811235 1.1431574 2.0275484e-38
3.3975132 1.1464033 1.1889272 2.1749904e-38
3.4179456 1.0912431 1.1389251 2.1196367e-38
3.4671752 1.1341382 1.1845701 2.0919057e-38
3.5020366 1.1365218 1.1878037 2.0919057e-38
4.9635577 1.1131985 1.1392199 2.0183289e-38
3.3030591 1.1937394 1.1715734 2.0553865e-38
3.396842 1.1687778 1.1625583 2.193573e-38
3.4098377 1.1214385 1.1375327 2.1750987e-38
3.4649546 1.1674559 1.168645 2.2487477e-38
4.9628077 1.1486943 1.1490022 2.036696e-38
3.2294188 1.2426839 1.0308617 1.9445721e-38
3.2894585 1.2099168 1.1238774 1.9998892e-38
3.3310945 1.194842 1.14423 1.9907056e-38
3.3808277 1.1759911 1.1487025 2.0923372e-38
3.3885472 1.1314753 1.1159707 2.1573423e-38
4.952383 1.1623898 1.1057217 1.9998534e-38
3.236897 1.2638696 1.1904598 2.0550968e-38
3.2567165 1.2611032 1.1246572 1.9906697e-38
3.3004923 1.2609134 1.1746289 2.0091447e-38
3.3324771 1.2521079 1.1888595 2.027512e-38
3.3662462 1.2494562 1.1920133 2.0091447e-38
2.9418721 -1.0178616 -0.57449543 1.096517e-38
4.9663596 1.2606366 1.1462947 2.036696e-38
3.2116044 1.2886916 1.1476951 1.999889e-38
3.251663 1.2874155 1.1351907 1.9906696e-38
3.3008192 1.2958505 1.1684977 2.0091447e-38
3.3325586 1.3044999 1.174727 1.9999971e-38
4.9632797 1.2861593 1.1495646 2.0458794e-38
1.746307 -1.0494262 -0.63761914 1.197862e-38
3.1184547 1.3548783 1.1714016 1.9352073e-38
3.1307425 1.3173759 1.141838 1.8799634e-38
3.1586199 1.3126612 1.1303694 1.8983303e-38
3.2115421 1.3274645 1.173578 1.9813056e-38
3.2428727 1.3349651 1.1806469 2.0091087e-38
4.9685998 1.3403244 1.1738894 2.0550991e-38
4.9825592 1.1279113 0.92756039 1.8984024e-38
3.1021056 1.2443244 1.0589294 1.8615231e-38
3.0898228 1.3363067 1.1416266 1.9536109e-38
3.1279576 1.3520681 1.1597573 1.9166604e-38
3.1418474 1.3064027 1.1235391 1.8707082e-38
4.9610586 1.3610541 1.1576891 2.0458796e-38
2.8882678 1.4363838 1.1878173 1.7511782e-38
2.9865162 1.426497 1.1707064 1.7141189e-38
3.0309534 1.4086124 1.1673973 1.7878039e-38
3.0438585 1.3720123 1.1198889 1.8431202e-38
3.0964363 1.3935682 1.1753362 1.8798542e-38
3.1219809 1.4086729 1.1896619 1.8614512e-38
4.9573474 1.38484 1.1430097 2.0274764e-38
2.9087925 1.4232064 1.1152666 1.6027318e-38
2.9286573 1.3943728 1.1202202 1.7783676e-38
2.9447682 1.4604857 1.1732842 1.7970588e-38
2.9514735 1.4007417 1.0815822 1.8248252e-38
3.0111661 1.446052 1.1644824 1.7877312e-38
2.9999325 1.4279554 1.1205244 1.7784752e-38
4.9622054 1.4259521 1.1477059 2.0274405e-38
2.8419731 1.4400817 1.1419346 1.8154612e-38
2.939703 1.420634 1.1223584 1.8799977e-38
2.9233608 1.4623688 1.16065 1.7509244e-38
3.0332768 1.4814579 1.1982338 1.8605519e-38
4.9672794 1.5042099 1.1797216 2.0458796e-38
4.4685817 -2.1895559 0.81068897 1.8337586e-38
4.3172259 -2.521148 1.1619018 2.0641401e-38
4.3002467 -2.546371 1.2195866 2.1010544e-38
4.3534608 -2.5573511 1.2170496 2.1010538e-38
4.5187988 -1.0447071 1.2183486 3.3147197e-39
4.5801878 -1.0549581 1.2222084 3.3147211e-39
4.6425085 -1.0500201 1.2131352 3.4065552e-39
4.4622326 -1.0286647 1.2158163 3.3147225e-39
4.5194268 -1.0243886 1.2101837 3.1314102e-39
4.5218158 -1.024107 1.2103086 3.2225268e-39
4.5772781 -0.98370111 1.1681241 3.4065608e-39
4.6398458 -1.0242807 1.2162986 3.4983907e-39
4.6103563 -1.0036939 1.185312 3.5909492e-39
4.7048087 -1.0115608 1.21514 3.5909492e-39
4.639873 -0.97351736 1.2200434 3.6831421e-39
4.5912738 -0.96383244 1.1802318 3.7749804e-39
4.7057862 -0.96056932 1.2061318 3.6835022e-39
4.7699146 -0.97840381 1.2137432 3.5009088e-39
4.6398091 -0.93615711 1.218794 4.0512071e-39
4.6419177 -0.93382949 1.2180055 3.959373e-39
4.7109132 -0.87525195 1.1561685 4.2359585e-39
4.5803905 -0.91476434 1.2202368 3.9600919e-39
4.6397333 -0.9012773 1.2153071 4.1423223e-39
4.6416893 -0.90190071 1.214476 4.1426853e-39
4.6571264 -0.86613762 1.1891997 6.1706136e-39
4.766027 -0.74920684 1.0793347 5.6174454e-39
4.6399817 -0.87479401 1.2258391 6.8163473e-39
4.6413255 -0.87285566 1.2215694 7.2769597e-39
4.7082491 -0.82463592 1.189782 1.4279158e-38
4.7684116 -0.83958983 1.1842386 1.5109282e-38
4.6395197 -0.81567943 1.2156979 1.7504938e-38
4.6413803 -0.81832284 1.2158556 1.6952124e-38
4.7071161 -0.76123589 1.172411 1.7692918e-38
4.7695889 -0.82107925 1.2046958 1.9258453e-38
4.6393809 -0.77947986 1.2119383 2.0274765e-38
4.6413045 -0.77812076 1.2098966 2.0274764e-38
4.6744118 -0.70824939 1.1704626 2.0182568e-38
4.7698007 -0.7787897 1.208994 2.0644264e-38
4.7043967 -0.74859864 1.214837 2.0921212e-38
4.7704763 -0.69670379 1.1936219 2.1013409e-38
4.7049298 -0.69673645 1.2142365 2.1566942e-38
4.7668095 -0.67701417 1.1833482 2.1290356e-38
4.7118011 -0.55602872 1.136525 2.1014488e-38
4.7669215 -0.65030843 1.1960969 2.1567661e-38
4.708858 -0.50483829 1.1519283 2.1290355e-38
4.7649984 -0.59715378 1.1818043 2.138363e-38
4.7037668 -0.54503912 1.1905435 2.1659498e-38
4.7674251 -0.56377178 1.1789147 2.1475466e-38
4.7069402 -0.50603336 1.1914237 2.1659499e-38
4.7698569 -0.51881307 1.1710865 2.1383271e-38
4.769218 -0.49782652 1.18783 2.1567662e-38
4.7813754 -0.38913903 1.1518692 2.1107044e-38
4.8387127 -0.43239924 1.1893431 2.1291435e-38
4.7693219 -0.40594563 1.1765572 2.119888e-38
4.8374562 -0.40199143 1.1985666 2.1383271e-38
4.7695584 -0.3467246 1.1578397 2.0922291e-38
4.8354855 -0.38563028 1.2248975 2.1383271e-38
4.7678175 -0.3340829 1.1961981 2.1198878e-38
4.8368139 -0.35714063 1.233835 2.1383271e-38
4.5791049 -0.2887634 1.2091128 2.1475465e-38
4.6389093 -0.29204226 1.2190871 2.1475106e-38
4.6229601 -0.3580102 1.1387091 2.0645704e-38
4.7165136 -0.27330881 1.1755172 2.1106683e-38
4.7679148 -0.31687343 1.2231687 2.138363e-38
4.5175495 -0.25371259 1.2185997 2.1475108e-38
4.5222311 -0.25993839 1.2191168 2.1566586e-38
4.5897198 -0.21935682 1.1875377 2.1106684e-38
4.402565 -0.21268076 1.2132653 2.1198164e-38
4.4607134 -0.24456918 1.171382 2.0830097e-38
4.5171952 -0.22921215 1.2199876 2.119888e-38
4.5221858 -0.23417564 1.2277027 2.1199241e-38
4.3460379 -0.16271186 1.2181212 2.0737184e-38
4.3999834 -0.17954421 1.2217624 2.064463e-38
4.4109039 -0.17605469 1.1951519 2.0460596e-38
4.4617915 -0.22395891 1.1819446 2.0553153e-38
4.2926092 -0.12725326 1.2238829 2.0647505e-38
4.3574438 -0.12595205 1.1909268 2.0646427e-38
4.2389021 -0.094063625 1.2026503 1.9724464e-38
4.2885909 -0.15555017 1.0831221 1.8894705e-38
4.2946725 -0.1221704 1.1979131 1.9632269e-38
4.3455267 -0.11166579 1.2295939 1.9908857e-38
4.1493163 -0.049728442 1.1765306 1.953971e-38
4.1973004 -0.066459306 1.193867 1.9631907e-38
4.2384105 -0.077068776 1.2262917 1.9724104e-38
4.0391045 -0.00028285291 1.2140725 1.9999595e-38
4.0890579 -0.037574124 1.1790907 1.9446788e-38
4.138216 -0.029284237 1.2235885 1.9908131e-38
3.9952388 0.030075392 1.2117954 1.7235912e-38
4.0391765 0.024852015 1.2218053 1.8615591e-38
4.0584912 -0.0022058215 1.1665592 1.8063498e-38
4.0951052 -0.008991383 1.1991987 1.8525197e-38
3.9010706 0.07228148 1.2242618 2.0183266e-38
3.9953337 0.054828383 1.2144684 1.8432644e-38
4.0395699 0.048286218 1.2325445 1.7972031e-38
3.8592496 0.10459577 1.2233013 1.9815924e-38
3.9002585 0.099302702 1.1961126 1.8710309e-38
3.9584515 0.10444715 1.1923548 1.8525197e-38
3.9933078 0.09148898 1.2301229 1.7973825e-38
3.8575258 0.13939272 1.1970911 1.8154976e-38
3.9052703 0.12422904 1.1841036 1.8338287e-38
3.7730861 0.19741935 1.2132161 1.861772e-38
3.8163331 0.1866231 1.2152284 1.8246812e-38
3.8535044 0.15198542 1.1736249 1.8339725e-38
3.903183 0.16689005 1.2267307 1.8340084e-38
3.73417 0.23272771 1.2264304 1.6955737e-38
3.7678342 0.20305845 1.2034764 1.8430123e-38
3.812161 0.20126829 1.2102563 1.8247891e-38
3.7718027 0.23950095 1.1715446 1.8339006e-38
3.8158092 0.25732052 1.2208095 1.90755e-38
3.858896 0.26494047 1.2139891 2.0090366e-38
3.7733142 0.28370854 1.2275249 2.3224277e-38
4.8963323 0.2796084 1.1916126 2.1938252e-38
4.8135676 0.28294334 1.1638398 2.0830468e-38
4.8973584 0.31555691 1.1922809 2.120033e-38
4.8330541 0.39608836 1.230195 1.9260612e-38
4.8836069 0.34545761 1.1868577 1.8431218e-38
4.8344126 0.43271694 1.2383451 1.9536835e-38
4.8731642 0.37376457 1.181016 1.8707797e-38
4.8331094 0.45844281 1.2269671 1.9537197e-38
4.8867269 0.44572011 1.1968595 1.9168415e-38
4.8331509 0.49851495 1.2246658 1.972123e-38
4.884656 0.50924993 1.1903111 1.9444642e-38
4.8324265 0.5411334 1.2186449 1.972195e-38
4.893755 0.53267515 1.1840156 1.9445003e-38
4.8301058 0.56757867 1.2067711 1.972195e-38
4.877809 0.5830757 1.1743727 1.9445363e-38
4.8348708 0.63224602 1.211504 1.9998536e-38
4.8795347 0.62229449 1.1760013 1.9537559e-38
4.8344865 0.65936124 1.2129526 2.0090733e-38
4.8797002 0.65303636 1.1736885 1.9629755e-38
4.9698324 0.67387098 1.2390256 2.0090374e-38
4.8342643 0.68975204 1.2159369 2.0275483e-38
4.8867393 0.69850022 1.1880133 1.9998537e-38
4.9698825 0.69984543 1.2378076 2.0182568e-38
4.8996406 0.72989136 1.2111897 2.0275484e-38
4.9645405 0.74533963 1.1881939 1.9907062e-38
4.9559946 0.77795124 1.1904192 2.0091093e-38
4.9446754 0.81805772 1.16969 1.9998896e-38
4.8990693 0.85269272 1.2396567 2.0643907e-38
4.9663763 0.85176772 1.1909672 2.0275483e-38
4.9577184 0.89780462 1.190536 2.036768e-38
4.9662695 0.94196844 1.1935139 2.036768e-38
4.9425817 0.98083353 1.1636989 2.018293e-38
4.9514337 1.0207716 1.1841882 2.0275484e-38
4.9635682 1.0577338 1.1769398 2.0367321e-38
4.937098 1.0888199 1.1742765 2.0367678e-38
3.3974769 1.1490383 1.2175084 2.1658065e-38
3.4233932 1.1310408 1.1586405 2.0826861e-38
3.502342 1.1482033 1.2234361 2.0919057e-38
3.5383134 1.144254 1.2254654 2.0919057e-38
4.9665365 1.0905364 1.1930237 2.036768e-38
3.3385611 1.1983351 1.212239 2.1668861e-38
3.3931522 1.1821399 1.2135693 2.211833e-38
3.3793206 1.1777905 1.1347291 2.1658431e-38
3.4680078 1.1682645 1.2077971 2.1749898e-38
3.5361009 1.1655043 1.2262191 2.0827578e-38
4.9695263 1.1663951 1.2096883 2.0643546e-38
3.2210929 1.1875434 1.1019598 1.87085e-38
3.3068178 1.2127347 1.186334 1.9445708e-38
3.3749259 1.2184013 1.2106798 2.1015927e-38
3.3871362 1.1998776 1.182078 2.2492498e-38
4.9641175 1.1845444 1.0894393 1.9629394e-38
3.2635705 1.2568022 1.1886737 1.9629366e-38
3.270659 1.2280689 1.1671163 1.9353507e-38
3.3325965 1.2552738 1.229195 1.9260945e-38
3.3675456 1.2526673 1.2233495 2.0183282e-38
4.9492459 1.2583193 1.1804999 2.0274764e-38
3.2086861 1.2643073 1.1606714 1.9353141e-38
3.2598104 1.2552484 1.1645491 1.8892892e-38
3.2966628 1.2729458 1.2004038 1.7972376e-38
4.9651709 1.290444 1.196314 2.0459154e-38
3.1491878 1.353102 1.2144482 1.7325556e-38
3.140053 1.2743907 1.153156 1.7323405e-38
3.2209549 1.3290766 1.2079835 1.8156041e-38
3.2157362 1.2465316 1.1546048 1.806421e-38
3.3011034 1.3265029 1.2313292 1.8340433e-38
4.9725933 1.3454643 1.1970482 2.0458795e-38
3.0388656 1.3998312 1.2325658 1.7604301e-38
3.0627584 1.399645 1.2136314 1.8984014e-38
2.9567289 1.3332762 0.98136342 1.6681278e-38
3.1311243 1.3564758 1.1795856 1.7508881e-38
3.1589384 1.3349621 1.1874369 1.7046458e-38
3.2242637 1.3723904 1.2247152 1.7691835e-38
4.9683633 1.3857042 1.2138793 2.0550632e-38
2.9083726 1.4374959 1.2027901 1.9997814e-38
2.9319925 1.438771 1.2018905 1.7421741e-38
3.0364978 1.426649 1.2158611 1.8059193e-38
3.0122156 1.3554436 1.1447594 1.8523033e-38
3.0904057 1.4025269 1.1969526 1.8247172e-38
3.1398032 1.4126377 1.2217959 1.750925e-38
4.9682512 1.4208865 1.2223182 2.0550992e-38
2.9622316 1.3855406 1.1445867 1.7784764e-38
2.9542549 1.4516026 1.1991582 1.7971307e-38
3.0288596 1.3701577 1.1343544 1.8156417e-38
3.0220315 1.4497175 1.2047918 1.7601802e-38
3.0120404 1.4019574 1.1698374 1.7414536e-38
3.1491029 1.4403455 1.217694 1.8799628e-38
4.9678679 1.4551386 1.2108668 2.0550992e-38
3.0268936 1.4858059 1.2163925 1.7420295e-38
4.9664478 1.486618 1.2024325 2.0734304e-38
4.5854955 -2.1237667 0.92158097 1.8337582e-38
4.2997918 -2.5488093 1.2601008 2.1010182e-38
4.3526473 -2.551739 1.2584248 2.1010539e-38
4.2985878 -2.5100267 1.2551165 2.110202e-38
4.5188828 -1.0434948 1.2573216 3.2225282e-39
4.5003619 -1.0797173 1.1590925 3.6831449e-39
4.5800443 -1.0548995 1.2602713 3.2228856e-39
4.6399055 -1.0507513 1.2427577 3.406558e-39
4.6423759 -1.0534185 1.24993 3.3143623e-39
4.7052927 -1.0464246 1.2597786 3.1317689e-39
4.5191269 -1.0245049 1.2552246 3.2221681e-39
4.6005177 -1.0499531 0.88014108 4.3292429e-39
4.5845037 -1.006676 1.2197902 3.4065594e-39
4.6399059 -1.0257186 1.263293 3.4058419e-39
4.6417828 -1.0296714 1.2523136 3.4065594e-39
4.7055035 -0.99193865 1.2536933 3.4983949e-39
4.7726951 -0.95200276 1.2384317 3.5909478e-39
4.6398568 -0.97283965 1.2634319 3.5909506e-39
4.6456714 -0.95589566 1.2273394 3.6835064e-39
4.7028995 -0.96596169 1.2410797 3.6831435e-39
4.7404103 -0.74922997 1.008459 4.4207085e-39
4.6397743 -0.93378115 1.2446665 4.0512085e-39
4.641768 -0.93238485 1.2455823 3.9597317e-39
4.7048163 -0.9063527 1.2252828 4.0515672e-39
4.6396894 -0.90537494 1.2498296 4.2355956e-39
4.6417894 -0.90819323 1.2429218 4.2359557e-39
4.7032633 -0.89384019 1.2376803 5.4326954e-39
4.7776561 -0.64199907 1.1328036 5.8940323e-39
4.6394644 -0.86584938 1.2787925 9.9466631e-39
4.6416864 -0.87436408 1.2431266 6.6323232e-39
4.7016993 -0.84866452 1.2252864 1.3817097e-38
4.7688265 -0.80803102 1.2472544 1.6494014e-38
4.6418552 -0.83866394 1.2428597 1.5206863e-38
4.6938882 -0.83324504 1.2107738 1.8428691e-38
4.7721338 -0.76578802 1.2476878 1.9536117e-38
4.6992087 -0.78158695 1.211913 2.0274763e-38
4.7612309 -0.74272406 1.2206539 2.0275483e-38
4.7045341 -0.73601764 1.2588965 2.1197799e-38
4.7660551 -0.71442455 1.2209902 2.0921214e-38
4.7046041 -0.70548022 1.2598276 2.1566943e-38
4.7462454 -0.67798775 1.21753 2.1289996e-38
4.705348 -0.65287924 1.2420815 2.1751693e-38
4.7672739 -0.64779681 1.2460669 2.1567302e-38
4.744833 -0.58464324 1.2303115 2.1566942e-38
4.7038355 -0.58735478 1.2442632 2.1752052e-38
4.7674112 -0.56021202 1.2247177 2.1475466e-38
4.707716 -0.5458225 1.2421626 2.184353e-38
4.7556505 -0.52608484 1.2286384 2.1475466e-38
4.7532363 -0.47770911 1.2188786 2.138363e-38
4.83248 -0.4731378 1.2368537 2.1568021e-38
4.7666268 -0.43708053 1.2266648 2.1475466e-38
4.8348589 -0.46020016 1.2544709 2.1752055e-38
4.7476563 -0.39977443 1.2179558 2.1291075e-38
4.836369 -0.39326754 1.2353951 2.1382912e-38
4.757586 -0.35507613 1.2141627 2.0922653e-38
4.8352256 -0.38074929 1.248698 2.1382912e-38
4.7285967 -0.33647257 1.210187 2.1106683e-38
4.8349032 -0.35318235 1.267369 2.1475465e-38
4.5773954 -0.28879577 1.2787151 2.1383271e-38
4.6384764 -0.29204339 1.2608885 2.1291435e-38
4.6415162 -0.29210529 1.271481 2.1475108e-38
4.7104897 -0.2642194 1.2318219 2.1198878e-38
4.769753 -0.30351236 1.2206464 2.1106324e-38
4.4572148 -0.24900036 1.2460265 2.1475465e-38
4.5230894 -0.25583959 1.231099 2.1290715e-38
4.5222225 -0.25706774 1.2506232 2.1475466e-38
4.5848231 -0.24724783 1.2489679 2.1199238e-38
4.6390219 -0.27451345 1.2622887 2.1475466e-38
4.6378121 -0.28544018 1.1762594 2.1014131e-38
4.7011533 -0.27770486 1.2782843 2.1475106e-38
4.4590993 -0.21604775 1.250885 2.119924e-38
4.5229006 -0.22180071 1.2331792 2.1106324e-38
4.5221705 -0.22729614 1.2655095 2.1475104e-38
4.346426 -0.16388468 1.2528713 2.0829377e-38
4.3999052 -0.17120953 1.255268 2.0737183e-38
4.4066706 -0.18905339 1.2260798 2.0552791e-38
4.4687343 -0.18317463 1.2139887 2.0552793e-38
4.5177894 -0.19960804 1.2736362 2.1013771e-38
4.2931967 -0.12716617 1.2584683 2.1107408e-38
4.351203 -0.13277647 1.2207104 2.0646429e-38
4.40272 -0.14452843 1.2608966 2.1107046e-38
4.3017507 -0.078890778 1.2136712 1.963191e-38
4.3501577 -0.1090045 1.2177657 1.9816305e-38
4.1880441 -0.055027969 1.2584435 1.9447144e-38
4.2384 -0.077532902 1.2572167 1.9724103e-38
4.2675514 -0.11348993 1.1223727 1.9078375e-38
4.0975084 0.0083574923 1.2370552 1.6774914e-38
4.1481471 -0.025531037 1.2273501 1.7513193e-38
4.1886663 -0.029780617 1.2587035 1.9262753e-38
4.0392184 0.026865883 1.2575576 1.7789054e-38
4.0030122 0.031863324 1.2254932 1.7973086e-38
4.076354 0.030670051 1.2234249 1.7973451e-38
3.9482663 0.074080735 1.253557 1.8798859e-38
3.9887521 0.050976928 1.2225679 1.90769e-38
4.0392408 0.051836446 1.2587909 1.9169822e-38
4.0558152 0.05582235 1.2279326 1.9077266e-38
3.8587379 0.10039094 1.2419224 1.7966234e-38
3.9121504 0.10816393 1.2193636 1.6312492e-38
