# .PCD v0.7 - Point Cloud Data file format
VERSION 0.7
FIELDS x y z rgb
SIZE 4 4 4 4
TYPE F F F F
COUNT 1 1 1 1
WIDTH 1063
HEIGHT 1
VIEWPOINT 0 0 0 1 0 0 0
POINTS 1063
DATA ascii
3.4288433 -0.069595046 1.2550144 4.3241899e-39
3.4699159 -0.097923949 1.2933979 4.3238297e-39
3.5065296 -0.1072047 1.3002278 4.416024e-39
3.5447595 -0.11445558 1.3029803 4.2323516e-39
3.3971953 -0.057134807 1.2995713 4.3231109e-39
3.4213643 -0.056302138 1.2891016 4.8748455e-39
3.4468672 -0.059338782 1.2985134 5.2429078e-39
3.5051794 -0.074773043 1.2880677 6.7158672e-39
3.3032222 -0.004918186 1.2886763 6.0712223e-39
3.3335702 -0.014818531 1.2938237 5.7035258e-39
3.3705359 -0.018353356 1.2933805 6.1637837e-39
3.4081933 -0.024975315 1.2902869 6.5318473e-39
3.4450588 -0.032408841 1.2999642 6.8080741e-39
3.3059053 0.030181715 1.2992085 7.2690564e-39
3.3384426 0.020499585 1.3005608 7.3608919e-39
3.3682082 0.010760408 1.2885145 7.5449244e-39
3.4032695 0.0074972329 1.3096927 7.2683404e-39
3.2735465 0.068962783 1.3036796 6.7158854e-39
3.3034501 0.060830928 1.2980926 6.6236884e-39
3.3324468 0.056642476 1.2892717 6.8077209e-39
3.3569307 0.045863364 1.256222 6.9921136e-39
3.2740996 0.087591723 1.3036561 6.9917521e-39
3.3031209 0.088164583 1.2992351 7.0835876e-39
3.3363111 0.095797077 1.2994074 6.7151638e-39
3.3649619 0.10230344 1.2877188 6.5311326e-39
3.4007745 0.10943115 1.2939116 6.5311312e-39
3.307219 0.14288908 1.3050884 8.0973723e-39
3.3395622 0.14112119 1.303853 7.6371173e-39
3.3744006 0.13992184 1.3007692 7.5449244e-39
3.395838 0.14113592 1.2866095 7.4530903e-39
3.4432573 0.14363641 1.3052497 7.545286e-39
3.2744803 0.16662818 1.3071734 7.269055e-39
3.3060143 0.17344067 1.30378 5.4287466e-39
3.3406477 0.17190814 1.3023348 5.2443567e-39
3.3803098 0.17341693 1.3004196 4.7837373e-39
3.4029155 0.17947523 1.2918357 4.5071504e-39
3.4421339 0.18801016 1.307587 4.6904584e-39
3.3972499 0.20603691 1.2904485 5.8850514e-39
3.4274151 0.2045624 1.2962457 5.7935704e-39
3.4503934 0.2078784 1.3000973 5.7932117e-39
3.8623526 0.27458903 1.3007448 4.8723302e-39
3.9035795 0.27779496 1.2950884 4.6883005e-39
3.8571715 0.29207033 1.2901764 6.1598306e-39
3.9031732 0.300558 1.2934595 6.067635e-39
3.8201334 0.35103875 1.2854576 2.4857031e-39
3.8585885 0.34008732 1.2930869 4.6908256e-39
3.899122 0.32347819 1.2903324 6.5286131e-39
3.7401674 0.38383132 1.311366 2.4860688e-39
3.7749276 0.33790863 1.2288972 3.039244e-39
3.8177528 0.37148476 1.2888018 2.3942361e-39
3.8603768 0.37119648 1.2981797 2.3938718e-39
3.5769687 0.43205118 1.3131206 3.5924318e-39
3.6220055 0.43632191 1.3130574 3.2239982e-39
3.6568792 0.43853879 1.3135039 3.5920619e-39
3.7346907 0.4248336 1.2947251 3.5005921e-39
3.7768331 0.41341633 1.2993418 3.0399699e-39
3.8178365 0.40544492 1.2930584 2.671186e-39
3.8615756 0.41036659 1.2944655 2.5789889e-39
3.6216419 0.4406651 1.3128208 3.2229108e-39
3.6578348 0.44252369 1.3124508 3.3169169e-39
3.6776927 0.44653144 1.2578094 3.7775321e-39
3.7356124 0.46330449 1.2998742 3.4087496e-39
3.7766976 0.44100788 1.2911752 3.224371e-39
3.6186764 0.50225598 1.2998316 6.4584725e-40
3.6552572 0.50677276 1.2979683 2.7673935e-39
3.69119 0.49420303 1.291153 1.2901279e-38
3.737056 0.48621199 1.2970477 5.5209898e-39
3.6088018 0.52715939 1.2704152 4.70058e-39
3.651927 0.53600115 1.2922014 4.331429e-39
3.6960013 0.52838624 1.2975705 4.1448503e-39
3.5480669 0.57928663 1.2977413 5.2534035e-39
3.5802534 0.56962341 1.2783558 5.3455977e-39
3.6185153 0.57926023 1.2962852 4.9771753e-39
3.6553118 0.56768489 1.2953978 4.7924225e-39
3.6937323 0.57084495 1.2931789 4.700587e-39
3.5112908 0.63055515 1.2964159 5.713667e-39
3.5426834 0.62082016 1.2904869 5.6218301e-39
3.5786572 0.60562015 1.2938502 5.4381549e-39
3.6218109 0.60108417 1.2885995 5.069015e-39
3.4255366 0.67438048 1.304101 5.8058598e-39
3.4703608 0.67829049 1.2979412 5.7136642e-39
3.5098307 0.6643399 1.2964817 5.5292715e-39
3.5391181 0.64922959 1.2895314 5.5296316e-39
3.5799215 0.65529823 1.2976395 5.3456033e-39
3.3947337 0.70826489 1.3005666 5.7143816e-39
3.4159892 0.70574856 1.292173 5.7143844e-39
3.4654987 0.69966698 1.2924222 5.6218287e-39
3.4993229 0.68459076 1.2960008 5.6218287e-39
3.5275981 0.63305455 1.2474663 5.8976953e-39
3.3423719 0.75315797 1.3129516 5.8065773e-39
3.3793705 0.74601179 1.3049755 5.623265e-39
3.4188495 0.73671043 1.2899911 5.6229063e-39
3.4588749 0.73354906 1.3004678 5.5303533e-39
3.5072663 0.72872579 1.3137403 5.5299946e-39
3.2774758 0.79687911 1.2980864 6.0813691e-39
3.308315 0.78962064 1.2977958 5.7143844e-39
3.3402891 0.78382593 1.3009057 5.7143844e-39
3.371803 0.77585703 1.2947544 5.6225475e-39
3.409549 0.7692886 1.2890038 5.5307106e-39
3.4421098 0.76647723 1.3008441 5.4388737e-39
3.2737248 0.8284952 1.3002566 5.8062213e-39
3.3034806 0.81944829 1.29942 5.8062213e-39
3.334878 0.81087959 1.2900217 5.8980568e-39
3.3726075 0.80729824 1.2802039 5.898417e-39
3.2366602 0.87498236 1.3007976 5.6225489e-39
3.2681131 0.86381763 1.2996752 5.7140271e-39
3.2972772 0.84994012 1.2936651 5.7140271e-39
3.3292291 0.82311547 1.2674826 5.8987757e-39
3.3702531 0.84852076 1.2974555 5.7143844e-39
3.1854737 0.91056746 1.29994 5.7140299e-39
3.2195544 0.90520698 1.3012401 5.6218315e-39
3.2523298 0.89330745 1.2921472 5.6221902e-39
3.294637 0.87026489 1.2855705 5.6225489e-39
3.1859386 0.92395765 1.2956554 5.5303505e-39
3.2191577 0.92862284 1.2996106 5.6218301e-39
3.2405391 0.91898572 1.2843298 5.7140271e-39
3.2829015 0.92232221 1.297995 5.5299988e-39
3.33602 0.95380956 1.288662 5.5303575e-39
4.9696708 -2.813267 1.3341856 1.305544e-38
4.8348179 -2.7704403 1.3507497 1.2712197e-38
4.9549537 -2.7774329 1.344358 1.0410549e-38
4.9717717 -2.7739236 1.3294225 1.0411268e-38
4.4510374 -2.5731969 -0.25605679 1.6581576e-38
4.8345833 -2.736799 1.3412988 1.2529241e-38
4.8663535 -2.7365704 1.3488519 1.0965514e-38
4.8994555 -2.7423511 1.3433686 1.13325e-38
4.956017 -2.7410643 1.3473216 9.3038301e-39
4.9730077 -2.7422519 1.3269081 9.3038315e-39
4.767714 -2.6909339 1.3453599 1.2437041e-38
4.8339796 -2.7037427 1.3426397 1.114775e-38
4.8416047 -2.7015774 1.3425119 1.1055198e-38
4.9012523 -2.7034428 1.3411422 9.2116344e-39
4.9569941 -2.6934445 1.3471724 9.3038231e-39
4.9710307 -2.6989977 1.3310477 9.2119904e-39
4.7687287 -2.6642346 1.338605 1.1055193e-38
4.8347383 -2.6570156 1.3423784 9.1197961e-39
4.8419213 -2.6585486 1.3429266 9.1194388e-39
4.8994832 -2.6524365 1.3362871 9.2119904e-39
4.9563637 -2.6546001 1.3510977 9.3041846e-39
4.9681306 -2.6509466 1.3380153 9.3960201e-39
4.7034454 -2.6111112 1.3502537 9.0290467e-39
4.7689061 -2.6132946 1.3409806 8.9357608e-39
4.835134 -2.6193454 1.3418725 9.1197933e-39
4.8416519 -2.6173744 1.3400079 9.027962e-39
4.9028301 -2.61409 1.3411604 9.3960187e-39
4.9560709 -2.624217 1.3510342 9.5800512e-39
4.9702578 -2.6144276 1.33788 9.7640837e-39
4.7045531 -2.579478 1.3436027 8.9364755e-39
4.7681231 -2.5876753 1.3421861 9.027955e-39
4.8352265 -2.575088 1.3441645 9.3038259e-39
4.8415132 -2.574084 1.3433384 9.3038273e-39
4.897748 -2.5598524 1.3218584 9.7640837e-39
4.9607153 -2.5482452 1.3248433 1.288359e-38
4.8357739 -2.5405431 1.3356711 9.580054e-39
4.8419757 -2.5410471 1.3320953 9.5800512e-39
4.9047318 -2.5385628 1.3448724 1.1875202e-38
4.9544315 -2.5108101 1.3187172 2.3045975e-38
4.8386507 -2.5036516 1.3326124 1.1416754e-38
4.9040828 -2.5065198 1.3428091 1.8891396e-38
4.8346844 -2.4633672 1.3331954 1.4920157e-38
4.8426671 -2.4581039 1.3306897 1.3533282e-38
4.9025593 -2.4741066 1.3424183 1.2252292e-38
4.9003973 -1.8456471 1.3437014 2.341769e-38
4.8312654 -1.8221725 1.3323133 2.3325494e-38
4.8414083 -1.8215005 1.3317008 2.341769e-38
4.9025221 -1.8143215 1.3368615 2.3325494e-38
4.7671728 -1.7727047 1.3317466 2.341769e-38
4.8324437 -1.7882129 1.3329505 2.341769e-38
4.8427033 -1.7851223 1.3313557 2.341769e-38
4.8986845 -1.7821449 1.3396212 2.341769e-38
4.8354626 -1.7574152 1.3315123 2.341769e-38
4.8993134 -1.7387949 1.3327394 2.341769e-38
3.3068891 -1.5336905 1.3379416 2.341769e-38
3.3395636 -1.5366156 1.3493924 2.341769e-38
3.2719545 -1.4885581 1.3376486 2.341769e-38
3.3034892 -1.5039583 1.3459382 2.341769e-38
4.8346052 -1.4858266 1.3322778 2.0820428e-38
4.8977957 -1.4938982 1.3386703 2.1287852e-38
3.2420437 -1.4680668 1.3368464 2.341769e-38
4.7673349 -1.4459934 1.3495011 2.341769e-38
4.832304 -1.4582543 1.3323439 2.2027578e-38
4.9003224 -1.4550477 1.3463044 2.286057e-38
4.7029452 -1.4202999 1.3419029 2.341769e-38
4.7652869 -1.4102879 1.3503482 2.341769e-38
4.8992586 -1.4224896 1.3422849 2.3325131e-38
4.900579 -1.3945912 1.3335418 2.1378965e-38
4.6387353 -1.3553405 1.3500849 2.341769e-38
4.697938 -1.3209072 1.3514891 7.4444471e-39
4.8329916 -1.3203579 1.333421 2.0563249e-38
4.6980119 -1.3030311 1.3514674 2.2384321e-38
4.8330941 -1.3019804 1.3333673 4.9693028e-39
4.5773602 -1.2583146 1.3477863 9.5557541e-39
4.6360068 -1.2676513 1.3317831 1.2151442e-38
4.6417193 -1.2502766 1.3493187 8.1913448e-39
4.5727534 -1.1643357 1.3476309 8.4665262e-39
4.6367645 -1.1795657 1.3404467 8.3757753e-39
4.4057827 -1.1208524 1.3304732 1.1145999e-38
4.4612193 -1.1346738 1.3352863 7.7318619e-39
4.5173965 -1.1376015 1.3453989 6.8124069e-39
4.5734873 -1.1290797 1.3485103 5.2493944e-39
4.3478875 -1.096665 1.3350915 1.823591e-38
4.39853 -1.0936171 1.3343629 8.6527209e-39
4.403861 -1.0937953 1.3346258 8.836029e-39
4.4582248 -1.0989596 1.3406042 7.3634213e-39
4.5152588 -1.1055781 1.3464321 7.5485244e-39
4.5771232 -1.1009332 1.3420376 6.9038682e-39
4.2919798 -1.0504903 1.3297139 1.6737044e-38
4.3462992 -1.0595323 1.3349283 1.131019e-38
4.3972878 -1.061842 1.3384312 6.9903283e-39
4.4034119 -1.06303 1.3371853 6.9903354e-39
4.4560227 -1.0591296 1.3370553 6.6272855e-39
4.5165381 -1.0600801 1.3393104 7.1793789e-39
4.5252919 -1.0455849 1.3457507 6.1670305e-39
4.5814362 -1.0624403 1.3405082 7.4556071e-39
4.2914624 -1.0234221 1.3299081 1.4653943e-38
4.3451934 -1.0163664 1.3368936 7.3688121e-39
4.3971534 -1.0242022 1.3390322 5.2479538e-39
4.4032364 -1.0185539 1.3414021 5.3398033e-39
4.4594879 -1.0194485 1.3333787 5.6138539e-39
4.5172253 -1.0239786 1.3426933 5.7064026e-39
4.5213614 -1.0301495 1.3304405 6.8109565e-39
4.2910051 -0.97935796 1.3296931 8.5641196e-39
4.3455715 -0.98186463 1.3352907 6.9060402e-39
4.3994303 -0.98184842 1.3363161 5.4323465e-39
4.4019251 -0.98709875 1.3303189 4.9706509e-39
4.461751 -0.97550315 1.3406777 4.3263577e-39
4.2386866 -0.92050874 1.33815 6.8117244e-39
4.2917147 -0.93711334 1.3340831 8.2864636e-39
4.3466735 -0.94178355 1.3344778 7.2744626e-39
4.3967433 -0.95408463 1.3307623 4.9702907e-39
4.4029875 -0.95395017 1.3478656 6.9060388e-39
4.2386537 -0.90439838 1.3300712 8.4704751e-39
4.3293447 -0.99245298 1.2215456 8.2882488e-39
4.3472795 -0.90794289 1.3313524 6.9989547e-39
4.0897679 -0.8408311 1.3298438 8.9169344e-39
4.2370362 -0.86239243 1.3360125 8.4708408e-39
4.243041 -0.8543945 1.3286064 8.7463599e-39
4.2919879 -0.85685837 1.3420776 8.4711995e-39
4.3472352 -0.87603188 1.3304735 7.2741109e-39
4.1386108 -0.81136554 1.3332098 7.8233554e-39
4.1897531 -0.81603372 1.3346683 8.1946183e-39
4.236908 -0.82710958 1.3320148 8.3800843e-39
4.2409091 -0.82325137 1.3393172 8.4715611e-39
4.2940321 -0.8324393 1.3465405 8.2875285e-39
4.0891194 -0.76753372 1.3348479 7.9123575e-39
4.1384916 -0.78037292 1.3366188 8.4683521e-39
4.1879339 -0.79048467 1.3370413 8.3790081e-39
4.2385864 -0.79039061 1.3382517 8.4715611e-39
4.2906466 -0.76748616 1.3466306 7.7365184e-39
3.9447014 -0.72597599 1.3588088 2.341769e-38
3.9896677 -0.73137867 1.3500881 2.2590812e-38
4.0376387 -0.72987062 1.3401171 1.0681857e-38
4.0422969 -0.73264992 1.3381846 1.0407411e-38
4.0893216 -0.73975396 1.3378785 8.6506106e-39
4.1386857 -0.75030577 1.3383706 8.1953371e-39
4.235137 -0.75871986 1.3293053 7.8269203e-39
3.902122 -0.68743241 1.3438863 1.4560123e-38
3.9483373 -0.6905272 1.3485204 1.0225115e-38
3.992888 -0.69559938 1.3491979 8.1110995e-39
4.0358858 -0.70387924 1.34856 7.0933322e-39
4.0425472 -0.69875407 1.3395135 7.7347261e-39
4.0898867 -0.71766841 1.3016595 8.2871712e-39
4.1388922 -0.70457798 1.3420058 8.2875328e-39
3.8606715 -0.6628952 1.3456305 1.3102675e-38
3.9037313 -0.65114278 1.3478414 9.1184523e-39
3.9486058 -0.65789801 1.3471107 7.3666681e-39
3.9797461 -0.65586597 1.2998275 7.3666583e-39
4.0308218 -0.6617927 1.3445437 6.9049584e-39
4.0340176 -0.65837157 1.316015 7.1801062e-39
4.0894527 -0.67013747 1.3405045 7.6396424e-39
3.8201857 -0.61006719 1.3352072 1.4471568e-38
3.8604438 -0.61481696 1.3449991 1.2257777e-38
3.8980989 -0.61251116 1.3273216 7.1830405e-39
3.9455009 -0.6227935 1.3345158 6.4450593e-39
3.9935725 -0.62581199 1.3410355 5.892247e-39
4.0142365 -0.62526631 1.3413439 5.2472448e-39
4.0447669 -0.62893456 1.3421247 5.3379957e-39
4.0903692 -0.63993388 1.3456136 5.8883038e-39
3.7796512 -0.57492429 1.3391879 2.0192653e-38
3.7239726 -0.50058442 1.1291677 1.4567668e-38
3.861048 -0.57741821 1.3448089 8.2936943e-39
3.9034369 -0.582591 1.3420435 5.9822973e-39
3.9482529 -0.58349401 1.3428305 5.9844413e-39
3.9937353 -0.59393084 1.3397927 5.2475993e-39
3.7766972 -0.52771026 1.3458371 1.8068953e-38
3.7420321 -0.46042043 1.163489 1.2534696e-38
3.8609059 -0.54020268 1.3436017 6.9024992e-39
3.9031453 -0.54140186 1.3404348 5.7996969e-39
3.9472897 -0.54404837 1.3402405 5.3390747e-39
3.9981599 -0.54158843 1.33759 4.9695691e-39
4.0384164 -0.54102618 1.3595819 4.601504e-39
4.043745 -0.55667007 1.3456241 5.4276746e-39
3.6958094 -0.48354086 1.3293834 2.3232584e-38
3.7361 -0.49539277 1.3358765 1.6141498e-38
3.7691782 -0.49005499 1.3241113 1.2259914e-38
3.8069937 -0.49625722 1.3280245 7.7362017e-39
3.8612454 -0.50705546 1.3410382 6.3500022e-39
3.8966434 -0.50973284 1.3211503 5.5234701e-39
3.9501367 -0.50987267 1.3391535 4.6937053e-39
3.6943994 -0.45129368 1.3346263 1.6510276e-38
3.7296989 -0.45852599 1.3292472 1.1426949e-38
3.7690744 -0.45659366 1.323916 8.6574475e-39
3.8180177 -0.46087137 1.3414503 6.9024613e-39
3.8608186 -0.47138193 1.3348501 5.8000542e-39
3.9047008 -0.47839037 1.3392423 5.0628493e-39
3.582016 -0.43881422 1.3274653 2.3234019e-38
3.6188118 -0.40556836 1.3378962 2.341769e-38
3.6552131 -0.40977055 1.3491359 2.1392997e-38
3.6575382 -0.41301 1.28601 1.1882504e-38
3.7319114 -0.41538587 1.3268206 8.3754474e-39
3.776031 -0.42628878 1.341486 7.637874e-39
3.8165212 -0.43272322 1.3473791 6.9967981e-39
3.580385 -0.36152959 1.3400745 2.323366e-38
3.6063471 -0.35994151 1.3243785 2.0009003e-38
3.6510613 -0.38182116 1.3251442 1.3826894e-38
3.6896966 -0.38297784 1.3258538 9.5797527e-39
3.7337618 -0.37618849 1.3194698 7.8251281e-39
3.7763767 -0.37810084 1.336094 6.3521504e-39
3.8166628 -0.38167024 1.3363483 5.3372796e-39
3.5016823 -0.33874506 1.3267902 2.341769e-38
3.5433877 -0.34429121 1.3362534 2.341769e-38
3.5798159 -0.34241965 1.3440207 2.2957435e-38
3.6054504 -0.32633698 1.3289989 1.7332469e-38
3.6494873 -0.34714827 1.3243766 1.0593198e-38
3.6931679 -0.34358516 1.3359163 8.2828804e-39
3.7350149 -0.34283796 1.3383385 6.9964436e-39
3.7760243 -0.34274977 1.3347107 6.4414594e-39
3.8164265 -0.34440663 1.3434571 6.3488896e-39
3.8566504 -0.34193161 1.3574224 6.717326e-39
3.4698205 -0.28709149 1.3409398 2.341769e-38
3.5089295 -0.30094624 1.3356503 2.341769e-38
3.542444 -0.29835352 1.3445401 2.1945807e-38
3.5800588 -0.29711896 1.3446292 1.6410877e-38
3.6062829 -0.29262334 1.324217 1.0037868e-38
3.6529226 -0.30096287 1.3340158 8.0992052e-39
3.6875141 -0.31191289 1.3293023 8.0098711e-39
3.734695 -0.31310412 1.3439691 7.0879078e-39
3.4731348 -0.24827461 1.3347837 2.1761777e-38
3.5101345 -0.25777361 1.3351146 1.8260532e-38
3.5426228 -0.25828585 1.3387749 1.234815e-38
3.5646558 -0.25087753 1.3191407 9.3006379e-39
3.6134844 -0.25922227 1.3333182 7.8247637e-39
3.6555297 -0.26595423 1.3406941 7.1811908e-39
3.6953611 -0.26261741 1.3420585 6.0759152e-39
3.736665 -0.2477044 1.3283845 4.4149814e-39
3.4318686 -0.21839987 1.3493671 1.8614183e-38
3.4704776 -0.21282421 1.3475814 1.6034506e-38
3.5059001 -0.21550144 1.3475322 1.2533962e-38
3.5126898 -0.20329642 1.3093394 9.1151663e-39
3.5745494 -0.2254333 1.3327171 7.7329282e-39
3.6180654 -0.21904515 1.3404694 5.7071439e-39
3.6556644 -0.21291912 1.338437 4.4156806e-39
3.6954391 -0.2223337 1.3310859 5.0588752e-39
3.7339411 -0.21942076 1.3421021 6.5293292e-39
3.4214418 -0.18246883 1.3468169 1.372423e-38
3.4718835 -0.17464787 1.3507038 8.7452753e-39
3.5073607 -0.17905317 1.3496706 9.114418e-39
3.5430138 -0.17995586 1.344772 7.3641471e-39
3.5674672 -0.18111315 1.3279763 5.6149483e-39
3.6181862 -0.18472812 1.3404858 4.5075189e-39
3.6572211 -0.18487982 1.3408711 4.7833786e-39
3.694577 -0.18605241 1.3477874 4.8773622e-39
3.3778861 -0.13127707 1.3514735 1.7114577e-38
3.4198084 -0.13515137 1.3525248 1.3177549e-38
3.4716327 -0.14325044 1.3504089 8.5594421e-39
3.5060165 -0.13272943 1.3371279 5.7993354e-39
3.5375667 -0.1356813 1.3337721 4.8773777e-39
3.5775914 -0.14929153 1.340268 4.599709e-39
3.6185782 -0.15486351 1.340634 4.8759259e-39
3.6560249 -0.15823801 1.3483088 5.3358279e-39
3.4360342 -0.089955702 1.340607 6.2592261e-39
3.4679863 -0.092142709 1.3307298 4.6007908e-39
3.5028193 -0.10265387 1.3355463 4.3245626e-39
3.5437975 -0.10942213 1.349017 3.956136e-39
3.3402553 -0.047856372 1.342649 8.2807224e-39
3.3908057 -0.048271053 1.3417177 5.8890199e-39
3.4217019 -0.058617812 1.3311568 4.6926305e-39
3.4550879 -0.066075891 1.3388253 4.2323712e-39
3.4974062 -0.07351575 1.3492466 3.9550598e-39
3.3099062 -0.032480653 1.3257495 7.8200988e-39
3.3375335 -0.021792725 1.3208301 5.5213121e-39
3.3695436 -0.017702492 1.331831 5.1528855e-39
3.4011507 -0.032005526 1.331653 4.4163967e-39
3.4442933 -0.032480873 1.337131 4.0479687e-39
3.3060143 0.036821879 1.3378309 7.8204337e-39
3.338582 0.022004083 1.3387077 6.8080811e-39
3.3647246 0.013870334 1.3279755 6.6236856e-39
3.4036515 0.015667319 1.3383069 7.1764936e-39
3.2730813 0.074910365 1.3378752 7.5445769e-39
3.3022311 0.067628369 1.3329434 7.8211582e-39
3.3320236 0.054535747 1.3287629 7.8211526e-39
3.3618233 0.035125874 1.3220577 7.8218687e-39
3.4054844 0.044669893 1.3499571 7.821154e-39
3.2743134 0.090577818 1.3368256 7.3609003e-39
3.3039656 0.093655594 1.335921 7.2683446e-39
3.3300097 0.10558098 1.3261861 6.8999166e-39
3.3670945 0.11065017 1.3319976 6.6236828e-39
3.3978016 0.10505425 1.3186172 6.5314872e-39
3.3066859 0.14230381 1.3347983 7.9129867e-39
3.339427 0.13707811 1.336024 7.6367599e-39
3.3684936 0.13877505 1.3308986 7.8211498e-39
3.4012759 0.13546818 1.3228091 7.7293129e-39
3.2718537 0.1635026 1.3270653 7.8214959e-39
3.3059254 0.17270608 1.3334697 7.3608947e-39
3.3406525 0.1680935 1.3364654 7.5445657e-39
3.3772008 0.16954084 1.3392344 6.9928325e-39
3.4098091 0.16936158 1.318681 5.5205835e-39
3.4531407 0.18722913 1.3381913 3.8632229e-39
3.5056851 0.19260901 1.3540972 3.4940817e-39
3.4367697 0.20168515 1.3287377 4.6900955e-39
3.4304829 0.20439057 1.286561 5.4265816e-39
3.5097325 0.20670304 1.3430922 5.3336699e-39
3.8182817 0.26984978 1.3298229 5.055648e-39
3.8594637 0.27397761 1.3387201 5.1481996e-39
3.9049201 0.27794611 1.3513552 5.056004e-39
3.8216038 0.28674829 1.3272732 5.9757995e-39
3.8563137 0.2936025 1.3258029 6.3438631e-39
3.9051733 0.30269742 1.3446405 6.2513088e-39
3.8096054 0.35262623 1.3285956 2.1172779e-39
3.8584073 0.33958709 1.3366077 4.2312866e-39
3.9012861 0.31943253 1.3308547 6.3453009e-39
3.946151 0.32729477 1.3276477 6.9885025e-39
3.7387567 0.38833246 1.3335764 2.4860674e-39
3.7753642 0.39162382 1.3397254 2.4864276e-39
3.8126183 0.37905329 1.33243 2.4857045e-39
3.8589771 0.36703423 1.3335924 2.2098365e-39
3.5834417 0.40881577 1.3545024 8.1071156e-39
3.6211839 0.43443146 1.3311838 3.5927905e-39
3.656028 0.43678892 1.34119 3.5924276e-39
3.6961527 0.42798841 1.346806 3.4076776e-39
3.7328544 0.42395028 1.332587 3.2232793e-39
3.7716036 0.41011012 1.3342084 3.0392412e-39
3.8156755 0.40131909 1.3327706 2.7630173e-39
3.8622761 0.40730616 1.3291323 2.6711846e-39
3.6216841 0.44070834 1.3265852 3.4998732e-39
3.6607428 0.44304255 1.3412868 3.5920703e-39
3.6893349 0.44755206 1.3279423 3.5005809e-39
3.7345202 0.46418944 1.3367877 3.4083769e-39
3.7784908 0.44095117 1.3530425 3.4998606e-39
3.6185367 0.5021686 1.3518405 8.2054699e-39
3.6547289 0.49935642 1.339303 5.2548861e-39
3.6901205 0.49054506 1.3314614 1.3088932e-38
3.7269583 0.47812545 1.3295797 6.6262598e-39
3.5815685 0.55224562 1.3459233 5.1612051e-39
3.6108203 0.54870397 1.3314503 4.9768124e-39
3.6524026 0.53279376 1.3310425 4.5158244e-39
3.6896768 0.52241457 1.3369423 4.2374102e-39
3.5493751 0.57708645 1.33979 5.5303491e-39
3.5753756 0.57870501 1.3349192 5.5299904e-39
3.6166642 0.57940024 1.3368696 5.3455991e-39
3.6568794 0.56385845 1.3333682 4.8846168e-39
3.6937158 0.56877387 1.3275204 4.884258e-39
3.5111597 0.62866133 1.3456573 5.9902525e-39
3.5279284 0.62552077 1.3175985 5.9902511e-39
3.5748529 0.61545199 1.3328342 5.714383e-39
3.6190627 0.6101988 1.3464273 5.4385136e-39
3.6546607 0.6046778 1.3460386 5.2541252e-39
3.3989904 0.67899787 1.3360276 5.899133e-39
3.4231558 0.67604727 1.3394979 5.8984142e-39
3.4575963 0.66722679 1.3358334 5.9902511e-39
3.503469 0.66217422 1.3357273 5.8062171e-39
3.5360088 0.66200608 1.3296498 5.6221874e-39
3.5800643 0.64694297 1.3477241 5.8058626e-39
3.397856 0.70246923 1.3385864 5.8072961e-39
3.4223335 0.69736952 1.3341464 5.8987743e-39
3.4565217 0.690938 1.3255433 5.8984142e-39
3.4996114 0.69100612 1.3291659 5.8058612e-39
3.5428891 0.68953222 1.335713 5.7140229e-39
3.3802438 0.74482316 1.3382689 5.8072961e-39
3.4154606 0.73022771 1.3286645 5.8991316e-39
3.4428861 0.73415852 1.3391048 5.8069374e-39
3.5111032 0.7325089 1.3266772 5.6218329e-39
3.5443451 0.72109306 1.3337255 5.7129509e-39
3.3120494 0.79798174 1.3274096 6.0820866e-39
3.3418515 0.78821468 1.3291613 5.8065787e-39
3.3747554 0.77827823 1.3354475 5.8065787e-39
3.3990159 0.76052177 1.3248631 5.8987729e-39
3.442584 0.764121 1.3337138 5.623265e-39
3.2745929 0.82830453 1.3328009 5.898417e-39
3.3031173 0.82223219 1.332577 5.898417e-39
3.336798 0.81660807 1.3310587 5.8980582e-39
3.364897 0.80137199 1.3227409 5.9902511e-39
3.3607974 0.72933269 1.2703533 6.359751e-39
3.2386672 0.87536365 1.3312051 5.806936e-39
3.264209 0.85809362 1.3290002 5.8065815e-39
3.2962749 0.85598421 1.3285477 5.8062227e-39
3.33691 0.85952997 1.3404262 5.8980568e-39
2.0996614 -0.94278908 -0.62602943 2.0368393e-38
3.2221704 0.90370739 1.3271893 5.7140271e-39
3.2532659 0.88792163 1.3237456 5.8065815e-39
3.290935 0.88167894 1.3220066 5.7147446e-39
3.3375034 0.88077861 1.3513587 5.8977009e-39
3.2226415 0.92913151 1.3266162 5.5303561e-39
3.2524581 0.91610956 1.3202248 5.8062227e-39
3.2997344 0.95274025 1.348727 5.6221888e-39
4.9696712 -2.8118887 1.387542 1.2620718e-38
4.8355722 -2.7680247 1.3901439 1.2252664e-38
4.90099 -2.773242 1.3833266 1.2528882e-38
4.9560056 -2.7850935 1.3849807 1.1423971e-38
4.9707279 -2.7801437 1.3811872 1.1055916e-38
4.8341303 -2.7360661 1.3787061 1.2528162e-38
4.8604059 -2.7311666 1.3773022 1.0872595e-38
4.9009981 -2.7456625 1.3802099 1.1424335e-38
4.9558263 -2.73754 1.383456 9.211633e-39
4.9704304 -2.7454474 1.3809463 9.1197961e-39
4.7682405 -2.6938636 1.3699487 1.2345214e-38
4.8351393 -2.7067711 1.3789427 1.1239585e-38
4.8419814 -2.7104275 1.3776723 1.188388e-38
4.9006162 -2.7023075 1.3790054 9.0279564e-39
4.9564567 -2.6953347 1.3842688 8.9361265e-39
4.973568 -2.6934741 1.3684208 9.1197947e-39
4.6968575 -2.6592484 1.3685113 1.2618568e-38
4.7550325 -2.650743 1.3829064 9.3041804e-39
4.7693782 -2.6631861 1.3790841 1.0594932e-38
4.8350992 -2.657609 1.3793024 8.9357622e-39
4.8420062 -2.655483 1.3799366 9.027955e-39
4.9003906 -2.6513922 1.371716 9.0279564e-39
4.9565845 -2.6520493 1.3842095 9.211989e-39
4.9712553 -2.6584337 1.3808687 9.211989e-39
4.7021408 -2.6084757 1.3750076 9.119429e-39
4.7578635 -2.625457 1.3878365 8.845335e-39
4.769403 -2.6169889 1.3784598 8.8439239e-39
4.8350925 -2.6175661 1.378124 9.0279564e-39
4.8419991 -2.6150603 1.3731478 9.1197919e-39
4.9029384 -2.6130168 1.3783231 9.211989e-39
4.9575377 -2.6221409 1.3773435 9.5796911e-39
4.9717464 -2.6140409 1.3801333 9.5800526e-39
4.7691278 -2.585144 1.3755318 9.0275949e-39
4.8352408 -2.5769136 1.3762884 9.2119848e-39
4.8418355 -2.5682888 1.368585 9.3038175e-39
4.8900561 -2.5563152 1.350244 9.4878556e-39
4.9593134 -2.5784049 1.3743019 1.1510008e-38
4.9779267 -2.5676572 1.3631583 1.0773546e-38
4.7720323 -2.551362 1.3859379 9.3041916e-39
4.837348 -2.5376887 1.3722742 9.5800526e-39
4.9036508 -2.5386431 1.3839115 9.7637264e-39
4.9745936 -2.5407746 1.3758464 1.4552808e-38
4.8370695 -2.5037076 1.3784374 9.7640866e-39
4.9038916 -2.5007553 1.3841205 1.0222542e-38
4.974535 -2.5089595 1.3896275 1.1606948e-38
4.8357449 -2.4705539 1.3866957 9.9477547e-39
4.842279 -2.4699697 1.3869165 1.0131784e-38
4.9008479 -2.4735334 1.3904092 1.1974995e-38
4.8391266 -2.4395409 1.3874369 1.160874e-38
4.9002151 -1.8217114 1.3689975 2.341769e-38
3.3053505 -1.5053869 1.3681017 2.341769e-38
3.3340502 -1.5079679 1.3737214 2.341769e-38
4.8345709 -1.490664 1.3775237 2.341769e-38
4.9028931 -1.4957021 1.3781563 2.3142183e-38
4.7683892 -1.4505484 1.377535 2.341769e-38
4.833571 -1.4584367 1.3818951 2.341769e-38
4.9026623 -1.4689837 1.3695812 2.341769e-38
4.7022605 -1.4089962 1.3672804 2.341769e-38
4.7652493 -1.4163165 1.373476 2.341769e-38
4.8347569 -1.42409 1.384216 2.341769e-38
4.7030025 -1.37959 1.3854483 2.341769e-38
4.7662868 -1.3928972 1.3860227 2.341769e-38
4.8333888 -1.3715661 1.3658305 2.2034772e-38
4.6343956 -1.3325517 1.3846493 2.3325496e-38
4.6418667 -1.3204255 1.3847339 2.3325496e-38
4.7001638 -1.3472366 1.3844566 1.9181776e-38
4.7649655 -1.3413725 1.3810997 5.062541e-39
4.8333726 -1.3531883 1.3657998 1.4279279e-38
4.5778046 -1.3026466 1.3786688 2.3325496e-38
4.6395178 -1.2850546 1.3842893 2.0937392e-38
4.6461725 -1.284494 1.3825285 1.9630507e-38
4.7026653 -1.2922301 1.3708999 9.1079636e-39
4.7649431 -1.3127691 1.3788042 1.3535435e-38
4.577589 -1.2627074 1.3782027 2.2774477e-38
4.6373358 -1.2590024 1.3852432 1.5231764e-38
4.6436911 -1.2615314 1.3778036 1.2269289e-38
4.5753675 -1.2204555 1.3739794 1.4830983e-38
4.5208578 -1.1718986 1.3878736 2.0343069e-38
4.5748005 -1.1750487 1.3796099 1.2341973e-38
4.635138 -1.1760927 1.3825009 6.5361787e-39
4.4591541 -1.1435153 1.3768835 1.9884288e-38
4.5163064 -1.140776 1.3787018 1.519423e-38
4.5206566 -1.1377964 1.3874563 1.5814778e-38
4.5765977 -1.1373851 1.3741659 8.1006234e-39
4.6311374 -1.145474 1.3847537 7.6407186e-39
4.3991156 -1.0875174 1.3639454 1.5706391e-38
4.4035802 -1.0959282 1.3723118 1.8102379e-38
4.4581323 -1.0974455 1.376749 1.406381e-38
4.514533 -1.1034441 1.380751 1.021031e-38
4.5209255 -1.1145221 1.3992561 1.6350315e-38
4.5766783 -1.1076223 1.3700452 7.4559644e-39
4.6412816 -1.0908093 1.3829308 7.0868204e-39
4.3470035 -1.0466431 1.363467 2.2830853e-38
4.3969631 -1.0627389 1.3644011 1.6942649e-38
4.4026909 -1.0598683 1.3695827 1.9063091e-38
4.4569178 -1.0630291 1.3866212 1.7314647e-38
4.5158935 -1.050048 1.3853382 6.9056731e-39
4.5239606 -1.0638965 1.3995672 1.1246005e-38
4.5794315 -1.0512297 1.3823382 5.3390803e-39
4.3466349 -1.0195472 1.362875 2.0818018e-38
4.3986602 -1.0147704 1.386619 1.6028362e-38
4.4037218 -1.0172663 1.3733474 1.2893664e-38
4.4567652 -1.0167027 1.3709816 6.6316001e-39
4.5172944 -1.0234449 1.3872778 6.7212874e-39
4.3449364 -0.98009688 1.3774184 1.2995297e-38
4.4012008 -0.98145431 1.3777999 8.3804823e-39
4.4597368 -0.99111819 1.3727825 7.0904329e-39
4.5162706 -0.99509346 1.3998249 7.918753e-39
4.2898269 -0.94686133 1.3629426 4.7791747e-39
4.3443727 -0.95223725 1.3727695 6.0727469e-39
4.3953819 -0.95545244 1.3896646 6.6269759e-39
4.4015722 -0.95344752 1.36447 8.0131039e-39
4.2395597 -0.88698524 1.3945893 2.286596e-38
4.2894936 -0.91519624 1.3622671 7.3659688e-39
4.1387377 -0.85062081 1.3614589 1.7901816e-38
4.1862764 -0.84503096 1.3776019 1.2014293e-38
4.2419672 -0.84810221 1.3939824 1.071281e-38
4.289669 -0.85732567 1.3873239 7.0872968e-39
4.3486886 -0.84357351 1.3955643 7.4570616e-39
4.1355014 -0.81927997 1.3644842 1.2185766e-38
4.1879625 -0.81661052 1.3759365 1.2629121e-38
4.2372236 -0.81804454 1.3850921 9.7692251e-39
4.2439394 -0.81761378 1.3778278 9.6719792e-39
4.2926683 -0.82243764 1.3857447 9.1087343e-39
4.0900211 -0.76764762 1.3824629 2.1578466e-38
4.1376572 -0.77649271 1.3787646 1.4667086e-38
4.1881089 -0.78325224 1.3809586 9.9572317e-39
4.2380409 -0.79157937 1.3827454 7.4520954e-39
4.2423797 -0.78695881 1.3900735 7.9073605e-39
4.2922111 -0.79958308 1.3793449 8.4726303e-39
3.9918888 -0.73193467 1.3656034 2.341769e-38
4.0368576 -0.7310639 1.3732438 2.0290974e-38
4.0435915 -0.72966152 1.3745642 2.0289538e-38
4.089397 -0.74086922 1.3771697 1.8348777e-38
4.1375771 -0.74471867 1.3764256 1.2347452e-38
4.1875329 -0.74424094 1.3859568 7.3617047e-39
3.9506826 -0.68756056 1.372743 1.3563613e-38
3.9943571 -0.69748378 1.372668 1.2070103e-38
4.0308499 -0.70196617 1.3795525 9.6683554e-39
4.0446429 -0.70225388 1.3759316 8.7485529e-39
4.0892906 -0.70425618 1.3757893 7.6457941e-39
4.1388812 -0.70440894 1.3813368 7.6403753e-39
4.1867962 -0.70774686 1.3878602 7.7314723e-39
3.9048755 -0.65318555 1.373404 2.3048912e-38
3.9489131 -0.65750271 1.3772373 1.4193557e-38
3.9940968 -0.65428728 1.3755493 7.6422082e-39
4.033905 -0.66342485 1.3749194 7.7365352e-39
4.0426097 -0.66550827 1.3703741 7.4606546e-39
4.0885382 -0.67024565 1.374777 7.2744598e-39
4.1384382 -0.67708421 1.3748717 6.9960723e-39
3.859668 -0.60592139 1.3727075 2.341769e-38
3.904439 -0.61604756 1.3747139 2.1299723e-38
3.9486451 -0.61930168 1.3783243 1.1704979e-38
3.9927115 -0.62519407 1.378891 6.5390962e-39
4.0251594 -0.62600595 1.3724719 6.1673906e-39
4.0432644 -0.6255967 1.3778683 6.1670305e-39
4.0919485 -0.63436288 1.3662237 4.9724544e-39
3.8607364 -0.57564008 1.3746883 2.3140384e-38
3.9030993 -0.58234012 1.3771478 1.476035e-38
3.9478025 -0.58307678 1.3778238 7.0015093e-39
3.9954288 -0.59477305 1.3823564 6.2563604e-39
3.77843 -0.5227983 1.3723936 2.341769e-38
3.7795863 -0.53312308 1.3171124 2.3232939e-38
3.7588801 -0.52690786 1.2443243 2.1208244e-38
3.9034302 -0.54073811 1.3783417 1.1976529e-38
3.9467728 -0.54753572 1.3714435 6.3510994e-39
3.996784 -0.5506801 1.3605404 5.4309158e-39
4.0437856 -0.5566498 1.3610004 5.246156e-39
3.7359166 -0.49051905 1.3715218 2.341769e-38
3.7774 -0.49440286 1.3751537 2.341769e-38
3.8167346 -0.49901366 1.3756762 2.2773045e-38
3.8603816 -0.50807905 1.3790966 1.5862753e-38
3.9021366 -0.50204641 1.3769349 6.717731e-39
3.9497881 -0.51468825 1.3817452 6.4403986e-39
3.6937747 -0.44354963 1.3702216 2.1851983e-38
3.7366695 -0.45589611 1.3758386 2.2957027e-38
3.7760599 -0.46266893 1.3768692 2.32333e-38
3.817596 -0.45951316 1.3731127 1.2268961e-38
3.8604805 -0.46743044 1.383049 1.050968e-38
3.9004636 -0.47608086 1.3826437 7.2651468e-39
3.6945291 -0.40631402 1.3760098 2.341769e-38
3.7162926 -0.42716783 1.3357356 2.3048909e-38
3.7732697 -0.43164194 1.3261117 1.8352007e-38
3.8191547 -0.42809683 1.3742913 8.4623097e-39
3.615489 -0.36508068 1.3694897 2.341769e-38
3.6555665 -0.37106556 1.372507 2.3325494e-38
3.6943953 -0.3796348 1.376654 2.3325494e-38
3.7346094 -0.37869924 1.3842267 2.0192312e-38
3.7755671 -0.39067739 1.3851134 1.6687461e-38
3.8148971 -0.3654846 1.3712057 8.3786564e-39
3.5817151 -0.32753992 1.369159 2.341769e-38
3.5218787 -0.27472883 1.2367685 2.2864157e-38
3.6555896 -0.33807465 1.3739334 2.3141465e-38
3.6949689 -0.34088072 1.3780413 1.8442412e-38
3.7344537 -0.34268257 1.3813906 1.3267944e-38
3.7732561 -0.3419064 1.3888254 9.8545628e-39
3.580101 -0.29299366 1.370837 2.341769e-38
3.5751567 -0.27473482 1.322168 2.2221312e-38
3.6558568 -0.30000243 1.3759683 1.65056e-38
3.6946099 -0.30250919 1.377893 1.1327898e-38
3.7340658 -0.30953491 1.3822947 9.8538285e-39
3.7757142 -0.30536583 1.3714334 7.5485426e-39
3.5452423 -0.25598028 1.3724116 2.341769e-38
3.5693612 -0.2523216 1.3647671 2.1484829e-38
3.6147482 -0.25255066 1.3749461 1.5396723e-38
3.6559389 -0.26030076 1.3814217 1.1700977e-38
3.6938846 -0.26844954 1.3822337 8.8389395e-39
3.7355962 -0.27230817 1.3903809 8.5587317e-39
3.4358954 -0.20967764 1.366715 1.7597866e-38
3.4713335 -0.21569794 1.3726836 1.8059925e-38
3.48844 -0.23051631 1.3410573 1.7783334e-38
3.5326886 -0.21822736 1.3631909 1.6404725e-38
3.5710857 -0.22050133 1.3689619 1.363816e-38
3.6178417 -0.22231984 1.378605 1.003856e-38
3.6547115 -0.21712038 1.3763032 8.0098781e-39
3.6941378 -0.20739079 1.3814253 5.7986249e-39
3.4368582 -0.17508635 1.3669736 1.6499788e-38
3.4721994 -0.17270315 1.3741024 1.3082846e-38
3.5024071 -0.17658058 1.3721079 1.0683586e-38
3.5368617 -0.18364504 1.3695928 9.5765045e-39
3.574614 -0.18358323 1.3675381 9.3913678e-39
3.6074517 -0.18273382 1.3652053 8.1935421e-39
3.6556063 -0.19031264 1.3757609 6.1670501e-39
3.693541 -0.18446159 1.3729215 4.5068001e-39
3.4323537 -0.13143921 1.3827695 1.7959801e-38
3.4659982 -0.13327609 1.3756394 1.5569567e-38
3.5035167 -0.14294797 1.3748801 1.1513692e-38
3.5353591 -0.14298867 1.3671367 9.0225923e-39
3.5697381 -0.14558828 1.3534305 7.365938e-39
3.6178474 -0.15484701 1.37126 4.8781091e-39
3.4358542 -0.10044913 1.3846867 1.5108972e-38
3.4678798 -0.097715162 1.3792467 1.0866527e-38
3.4992266 -0.10414187 1.3690069 8.2850244e-39
3.5309968 -0.10907708 1.3629292 6.9038836e-39
3.580801 -0.10763741 1.3860357 5.9830091e-39
3.3928306 -0.052874867 1.3730677 9.4799901e-39
3.4196348 -0.05622844 1.3696719 9.110846e-39
3.4535403 -0.068257749 1.3684889 8.1913953e-39
3.5047622 -0.072806247 1.3824589 6.9031704e-39
3.5428555 -0.07504376 1.3873701 5.4298396e-39
3.3501272 -0.0079654865 1.3725957 9.1040189e-39
3.3770788 -0.017428083 1.3670624 8.1892303e-39
3.3995204 -0.022059172 1.3734213 8.0048404e-39
3.4412773 -0.031513494 1.3857248 7.7307702e-39
3.3063955 0.030332286 1.3654535 6.9838684e-39
3.3383758 0.025707027 1.3722615 8.0005174e-39
3.370657 0.018783124 1.3747833 7.8197233e-39
3.3836589 0.01507146 1.3612492 8.4661675e-39
3.3031385 0.064864442 1.3597963 7.8164975e-39
3.3329673 0.051143657 1.3597881 8.2774658e-39
3.3622091 0.044693887 1.3624561 8.0937878e-39
3.4055343 0.050217725 1.3823314 8.2814077e-39
3.3022418 0.087682106 1.3573341 7.4516694e-39
3.3321121 0.099156037 1.3618113 7.3612577e-39
3.3597713 0.11317834 1.3630813 7.0850253e-39
3.4051023 0.11799199 1.391809 6.7166015e-39
3.3401752 0.12872389 1.365461 7.1772153e-39
3.3763971 0.13537019 1.3708073 7.4530847e-39
3.3959832 0.14464101 1.3667232 7.913344e-39
3.4413242 0.15605903 1.3922634 8.2814091e-39
3.3422217 0.16911049 1.3630753 8.0044522e-39
3.3825445 0.17089394 1.3673487 7.8204309e-39
3.4051685 0.17320906 1.3628825 7.912628e-39
3.4491501 0.17536095 1.382053 7.1765049e-39
3.5053945 0.19107771 1.3739684 3.8632187e-39
3.5456154 0.19538295 1.3735923 2.7611872e-39
3.5821152 0.19806603 1.3962376 2.5782448e-39
3.478147 0.20901377 1.3661157 4.0458205e-39
3.5089412 0.20497048 1.3676288 3.129248e-39
3.5431561 0.20872481 1.3717213 4.59826e-39
3.58042 0.21155985 1.3810475 4.7819282e-39
3.6183112 0.21705683 1.3917365 5.1499919e-39
3.6536298 0.21708526 1.3968813 5.3333041e-39
3.8546634 0.26377115 1.3605518 5.0563669e-39
3.9042859 0.276052 1.3818574 5.1481996e-39
3.8489792 0.30373973 1.3474085 6.6218905e-39
3.903698 0.2980738 1.3778594 6.3438631e-39
3.9530997 0.28384626 1.372154 5.1474807e-39
3.7774172 0.35494834 1.3934158 4.4210981e-39
3.8106291 0.34611282 1.3657026 2.9466854e-39
3.8581324 0.33706746 1.3716459 3.8643103e-39
3.9047081 0.32404679 1.3772708 6.2538255e-39
3.5804114 0.39942852 1.3685486 7.7412099e-39
3.6216192 0.39069054 1.3830845 7.0976328e-39
3.6595154 0.39793408 1.3829185 7.1865984e-39
3.6936276 0.39930931 1.3967196 6.9110933e-39
3.7766333 0.396173 1.3878167 3.8690047e-39
3.8172736 0.37632769 1.3779509 2.6704601e-39
3.8588231 0.36281842 1.3731622 1.9336097e-39
3.5816312 0.40832049 1.3761125 7.5543061e-39
3.6193731 0.41832614 1.3767605 8.1996727e-39
3.6485119 0.42472801 1.3698304 8.384064e-39
3.691283 0.41952848 1.3783671 6.8192648e-39
3.7328544 0.41765413 1.3771483 4.8828021e-39
3.7740855 0.41243261 1.3759011 3.6849764e-39
3.8145831 0.40762377 1.3775444 2.8552143e-39
2.7387545 -0.54017633 -0.57581311 1.7785838e-38
3.6592152 0.44149691 1.3864139 8.382985e-39
3.6895597 0.44998363 1.3716284 6.0802635e-39
3.7322218 0.46634471 1.3810492 4.2385047e-39
3.777307 0.44517869 1.3768193 3.4073147e-39
3.8185091 0.44576314 1.3855641 2.9474099e-39
3.619395 0.50811779 1.3767132 5.8018745e-39
3.6515093 0.50266123 1.3747207 1.1152087e-38
3.6947598 0.48989606 1.3799402 1.4176963e-38
3.7290144 0.48628399 1.3705708 9.6594096e-39
3.5839438 0.54917037 1.3671291 5.0697283e-39
3.6171455 0.55148202 1.3771286 5.1612051e-39
3.6506126 0.53566545 1.3735446 4.331436e-39
3.6958933 0.53414255 1.3776658 4.0541106e-39
3.5494051 0.58707553 1.3775231 5.8987729e-39
3.5730867 0.58185643 1.3672956 5.806936e-39
3.6139312 0.57380474 1.378271 5.622186e-39
3.6487458 0.56563079 1.385097 5.4377933e-39
3.5111027 0.62876803 1.3818181 6.0828068e-39
3.5385373 0.61951941 1.3651249 6.1746423e-39
3.5773296 0.61577475 1.3767533 5.9906084e-39
3.6177235 0.61153227 1.3712078 5.623265e-39
3.4364219 0.67371982 1.3686357 5.9906098e-39
3.4595025 0.66681319 1.3606066 6.0824467e-39
3.5010278 0.65605342 1.3679432 5.8987729e-39
3.5421777 0.65428889 1.3752267 5.7147432e-39
3.5803835 0.65068793 1.3733306 5.898417e-39
3.3920944 0.70863527 1.3801975 6.1746423e-39
3.4213474 0.70211983 1.3747792 6.0828054e-39
3.4590857 0.696006 1.3732177 6.082804e-39
3.5042956 0.68741953 1.3855772 5.9902525e-39
3.5461571 0.68128389 1.3906209 5.9902483e-39
3.3798125 0.74143726 1.3790359 6.0835229e-39
3.4162953 0.73401803 1.3670344 6.0831642e-39
3.4495001 0.73346663 1.3805971 5.9909685e-39
3.3473246 0.79437792 1.3749688 6.083167e-39
3.3787577 0.7798413 1.3757163 5.899133e-39
3.4005942 0.77408803 1.361632 5.9909685e-39
3.4422417 0.76690561 1.382218 5.8076563e-39
3.3083982 0.82685798 1.363466 5.9902539e-39
3.3304164 0.8134225 1.3576354 6.0824481e-39
3.3694608 0.80880809 1.371363 5.9906098e-39
3.3986673 0.80613905 1.3691975 5.9909685e-39
3.3003054 0.84744865 1.3543897 5.898417e-39
3.3282015 0.84336132 1.3543085 5.9902525e-39
3.3731401 0.86196339 1.3782928 5.7140313e-39
3.3059099 0.88635761 1.3645785 5.8065801e-39
3.33675 0.88065517 1.3640258 5.6218315e-39
4.9047818 -2.8095994 1.4075792 1.261929e-38
4.9569111 -2.8136375 1.4207448 1.2620353e-38
4.9696383 -2.8133085 1.414879 1.2436686e-38
4.9015903 -2.773349 1.4081707 1.2344136e-38
4.9566021 -2.7869902 1.4218444 1.1331782e-38
4.9707704 -2.7835553 1.4185425 1.1055914e-38
4.8361597 -2.7381914 1.4078429 1.2344833e-38
4.8968711 -2.7347198 1.4060302 1.0963361e-38
4.9559064 -2.7411859 1.4222182 8.9361209e-39
4.9703016 -2.7429595 1.4191467 9.0275991e-39
4.7560339 -2.680208 1.4070655 1.1611584e-38
4.7619557 -2.6953993 1.4053409 1.2526357e-38
4.8342314 -2.7040639 1.4142934 1.0594577e-38
4.8421149 -2.7019386 1.4139003 1.0226161e-38
4.9011912 -2.7032156 1.4183611 9.0275963e-39
4.9567833 -2.6991301 1.4174807 9.0275977e-39
4.9621291 -2.684828 1.4061 9.027955e-39
4.6911678 -2.6440449 1.4058726 1.1794537e-38
4.7577701 -2.6435635 1.4059887 8.7517395e-39
4.7706766 -2.650327 1.4144408 9.3041916e-39
4.8349948 -2.6588371 1.4174297 8.9353993e-39
4.8419695 -2.6564839 1.4166284 8.9354021e-39
4.9035773 -2.6568811 1.4119052 8.9357594e-39
4.9564304 -2.6530485 1.415918 9.0286711e-39
4.9726791 -2.6581948 1.4176277 9.1197933e-39
4.7050858 -2.6137226 1.4223093 9.0272446e-39
4.7706208 -2.6128833 1.4161762 8.9354007e-39
4.8354588 -2.6125834 1.4144137 8.9357636e-39
4.8419523 -2.6088271 1.4193345 9.0272376e-39
4.9033012 -2.6160395 1.4193046 9.1197933e-39
4.9575996 -2.6256475 1.4117839 9.6715308e-39
4.9736547 -2.6172299 1.416364 9.487857e-39
4.5772514 -2.573061 1.4358639 1.1331416e-38
4.6364222 -2.5858126 1.4216244 8.8432219e-39
4.6420808 -2.5889616 1.4036481 9.3049273e-39
4.7025213 -2.5770435 1.4164484 8.7517283e-39
4.7702603 -2.580112 1.4217186 8.9354063e-39
4.8354926 -2.5810785 1.4135861 9.1197919e-39
4.841939 -2.5854056 1.4144614 9.3949369e-39
4.903604 -2.5788615 1.4208931 9.4878556e-39
4.9740887 -2.5748541 1.4154831 9.6722511e-39
4.7069273 -2.5530601 1.439075 8.7517255e-39
4.8358636 -2.5450206 1.420138 9.3960145e-39
4.8428574 -2.5492816 1.4245046 9.3960201e-39
4.9036937 -2.538559 1.4143785 9.5804156e-39
4.9590731 -2.5403905 1.4305717 1.0407295e-38
4.9731593 -2.5388832 1.4211609 1.0131786e-38
4.6388111 -2.5015028 1.4379404 9.2109086e-39
4.6440926 -2.5048752 1.4292262 8.8432036e-39
4.835073 -2.5041437 1.4244058 9.4882157e-39
4.8406887 -2.5014076 1.4243822 9.3045475e-39
4.9040298 -2.502321 1.4141934 1.0131784e-38
4.9731722 -2.5087826 1.4251769 1.1792772e-38
4.8359127 -2.4764464 1.4234658 9.3963802e-39
4.8420486 -2.4755926 1.4238809 9.3960201e-39
4.9032302 -2.4689698 1.4093157 1.1700577e-38
4.8387661 -2.4392452 1.4061015 1.1794194e-38
4.8352752 -1.4846643 1.412385 2.341769e-38
4.9002876 -1.4890109 1.4204957 2.341769e-38
4.7687998 -1.4503473 1.4073595 2.341769e-38
4.8337483 -1.4562526 1.4174451 2.341769e-38
4.8429308 -1.4472774 1.4229151 2.341769e-38
4.9013128 -1.4623098 1.4173174 2.341769e-38
4.9750404 -1.4682524 1.4158616 2.341769e-38
4.7574387 -1.41223 1.4052057 2.341769e-38
4.7665591 -1.4136921 1.419848 2.341769e-38
4.8338227 -1.4247491 1.4210955 2.341769e-38
4.9030275 -1.4210949 1.425091 2.3049631e-38
4.7046008 -1.37758 1.4092606 2.341769e-38
4.7580657 -1.3757685 1.4235294 2.341769e-38
4.7442002 -1.364048 1.4117533 2.3233299e-38
4.9008522 -1.3829015 1.4239233 5.1630113e-39
4.6368742 -1.3261802 1.4049271 2.341769e-38
4.6422181 -1.320627 1.4018043 2.341769e-38
4.7019515 -1.3405821 1.4212886 2.3325494e-38
4.7641764 -1.3444828 1.3977253 2.1940059e-38
4.8342915 -1.3517078 1.4171331 8.9347925e-39
4.842927 -1.3545072 1.4207072 1.1515543e-38
4.6373353 -1.3068792 1.4021496 2.3234019e-38
4.6417785 -1.3126625 1.4014215 2.341769e-38
4.7022614 -1.2988338 1.4271225 2.295815e-38
4.7671905 -1.2991424 1.4189838 1.4836002e-38
4.8384924 -1.3106668 1.4047924 6.2538381e-39
4.6390119 -1.2568861 1.4059683 2.3140739e-38
4.7008991 -1.2517184 1.4311501 1.8512991e-38
4.7667184 -1.2549887 1.4209173 9.7487297e-39
4.8334584 -1.2620456 1.4218063 7.7347345e-39
4.5764656 -1.2080369 1.436237 1.9960719e-38
4.6366167 -1.2211978 1.4163908 1.7956524e-38
4.6456871 -1.2137649 1.4355726 1.830732e-38
4.7018209 -1.2165289 1.4153454 1.2339436e-38
4.5163574 -1.1694889 1.4166484 1.8949451e-38
4.5220551 -1.1673298 1.4250236 1.9130234e-38
4.5774765 -1.1708902 1.4315256 1.7932778e-38
4.6365142 -1.1829133 1.4287901 1.8772925e-38
4.6448455 -1.1921933 1.4361997 1.9495764e-38
4.5162687 -1.1351999 1.4174914 1.7183352e-38
4.5222387 -1.1347697 1.419127 1.7182631e-38
4.5701256 -1.1307484 1.4221691 1.6995717e-38
4.6367121 -1.139838 1.43764 1.6636601e-38
4.6444902 -1.1443775 1.4256891 1.1763982e-38
4.5164056 -1.100672 1.4192017 2.0416931e-38
4.5211377 -1.1028526 1.4200954 2.0137474e-38
4.5776944 -1.1054688 1.4335779 2.1809179e-38
4.6364288 -1.1100285 1.4205183 6.8034246e-39
4.4596329 -1.0510755 1.4156915 2.3395156e-38
4.5165806 -1.0635492 1.4239572 2.2566488e-38
4.5228457 -1.0592031 1.4290994 2.2935619e-38
4.5784245 -1.0698601 1.4302349 1.7685589e-38
4.6413598 -1.0731488 1.418218 5.7986361e-39
4.4038796 -1.004359 1.4309044 2.0631219e-38
4.4573379 -1.016744 1.4289734 2.192521e-38
4.5165586 -1.0288732 1.4222994 1.437063e-38
4.577704 -1.0212861 1.4320128 7.6468521e-39
4.3983746 -0.97831327 1.4148217 1.495876e-38
4.402061 -0.98712659 1.4250393 2.1946488e-38
4.4557314 -0.99950409 1.4322082 1.9464792e-38
4.519433 -0.98422146 1.4295952 5.8883626e-39
4.5794449 -0.98266649 1.428144 8.1042219e-39
4.4028144 -0.95360738 1.4310344 2.1395155e-38
4.3495779 -0.89310193 1.4295241 1.8912365e-38
4.1837683 -0.86209142 1.4248142 2.341769e-38
4.2369008 -0.87148488 1.4263024 2.341769e-38
4.241991 -0.84004045 1.4262395 2.341769e-38
4.2935004 -0.85102993 1.4204825 1.7247844e-38
4.3455672 -0.84738183 1.4270633 1.2626973e-38
4.4047413 -0.85384673 1.4301823 9.926015e-39
4.1390347 -0.81452608 1.4083338 2.341769e-38
4.1896777 -0.81497991 1.4151781 2.341769e-38
4.2372465 -0.81024921 1.4159249 1.59704e-38
4.2422304 -0.80826706 1.4170189 1.578601e-38
4.2918921 -0.82107544 1.419912 1.2183936e-38
4.345901 -0.81614918 1.4228998 7.823064e-39
4.0887413 -0.76629132 1.4114463 2.3417689e-38
4.1380253 -0.77671933 1.4177966 2.341769e-38
4.1890435 -0.78148389 1.4155607 2.323366e-38
4.2369556 -0.78887582 1.4185777 1.7072423e-38
4.2421336 -0.7910285 1.4181728 1.6888392e-38
4.2910862 -0.79937106 1.4193978 8.5804294e-39
4.044961 -0.72522724 1.4068184 2.2958513e-38
4.0896411 -0.73811716 1.4114425 2.2864883e-38
4.138217 -0.74530786 1.4227875 2.1388318e-38
4.1887565 -0.74706137 1.4217936 1.8718968e-38
3.9952035 -0.685718 1.4056044 2.3417331e-38
4.0276003 -0.69906896 1.4058828 1.7528006e-38
4.045188 -0.69995648 1.4084909 1.7248911e-38
4.0896916 -0.70447826 1.4178091 1.428173e-38
4.1378021 -0.70492971 1.424705 9.0338041e-39
3.9949534 -0.65053737 1.4063056 2.1393357e-38
4.0299692 -0.65926152 1.4163823 1.8158289e-38
4.042779 -0.66010654 1.4201339 1.7787709e-38
4.0889077 -0.66508549 1.4258974 1.4934295e-38
4.1397471 -0.67901653 1.4247129 8.4745024e-39
3.949002 -0.61580551 1.4044657 2.3325493e-38
3.9938769 -0.62540865 1.4159333 2.2128397e-38
4.0280824 -0.62695718 1.4169471 1.751901e-38
4.0441217 -0.62535334 1.4216794 1.5486733e-38
3.9053063 -0.57834357 1.403464 2.341769e-38
3.9473443 -0.57718885 1.410099 2.3325136e-38
3.9948745 -0.59554797 1.4123995 1.7436505e-38
3.8609836 -0.5300951 1.402349 2.341769e-38
3.9023936 -0.53787428 1.4037164 2.341769e-38
3.9475081 -0.54177284 1.4148422 2.0841626e-38
3.9952095 -0.53476691 1.4351933 2.341769e-38
3.7805834 -0.48138261 1.4007276 2.341769e-38
3.8170967 -0.48916554 1.4013246 2.341769e-38
3.8602357 -0.48739001 1.4140437 2.341769e-38
3.9005644 -0.49574715 1.4128797 2.2588655e-38
3.9475961 -0.49111483 1.4318672 2.3141465e-38
3.7778254 -0.46434915 1.4002478 2.2957027e-38
3.8171859 -0.46824285 1.4013591 2.341769e-38
3.8604307 -0.46543404 1.4071243 2.1853611e-38
3.9030862 -0.47494024 1.4143292 1.8445643e-38
3.94785 -0.46853852 1.4339244 2.2956717e-38
3.7334373 -0.40299547 1.4115682 2.341769e-38
3.6770957 -0.33029559 1.2813221 2.2587571e-38
3.8173957 -0.41117772 1.4155467 2.341769e-38
3.8598881 -0.42237031 1.4090927 1.71603e-38
3.7360079 -0.37589449 1.4066218 2.341769e-38
3.753135 -0.3681258 1.3821414 2.3048909e-38
3.8166895 -0.38683587 1.4208182 2.3325496e-38
3.6931076 -0.33724254 1.4126027 2.341769e-38
3.7356067 -0.3409974 1.4128717 2.341769e-38
3.7757297 -0.34316683 1.4223807 2.2496821e-38
3.8136389 -0.35301036 1.4294924 2.341769e-38
3.6177499 -0.28187069 1.4103765 2.341769e-38
3.6547532 -0.28970513 1.411476 2.341769e-38
3.6945853 -0.29674906 1.4126278 2.341769e-38
3.7351453 -0.30666515 1.4180183 2.2405703e-38
3.7768104 -0.28007981 1.4146947 7.8125458e-39
3.5800166 -0.24106649 1.4095526 2.258648e-38
3.6186283 -0.25012812 1.4119763 2.3048183e-38
3.655252 -0.25614786 1.4129531 2.31411e-38
3.693244 -0.26082683 1.4167339 2.1208965e-38
3.7356455 -0.27055126 1.4207653 1.670005e-38
3.7767806 -0.26572478 1.4146934 7.9169299e-39
3.5433183 -0.21266681 1.4087014 1.7320196e-38
3.5803578 -0.21652085 1.4112945 1.7968444e-38
3.6181812 -0.21872209 1.4162495 1.63997e-38
3.6549833 -0.22705199 1.4101144 1.3088258e-38
3.6943271 -0.229563 1.4259108 1.3267991e-38
3.5077634 -0.18774787 1.4078476 1.7967352e-38
3.5428078 -0.17835106 1.4089639 1.6223923e-38
3.5532808 -0.20873842 1.3667611 1.42821e-38
3.6177928 -0.19118346 1.4265392 1.4653009e-38
3.4412234 -0.11565687 1.3652425 1.8981517e-38
3.497638 -0.12783629 1.3963434 1.7867583e-38
3.5368998 -0.14523512 1.4047792 1.6216738e-38
3.565686 -0.15396225 1.3976777 1.5105716e-38
3.6174495 -0.13007748 1.4375553 1.2625851e-38
3.4360914 -0.091688633 1.4065182 2.0556381e-38
3.4651659 -0.094874665 1.4056441 1.8983692e-38
3.493835 -0.097698323 1.4076641 1.695359e-38
3.5425453 -0.10862298 1.4135611 1.1971814e-38
3.5792127 -0.10792577 1.4137672 9.2977442e-39
3.6169982 -0.10302647 1.4106977 6.9031746e-39
3.4263947 -0.060843349 1.3958682 1.6865703e-38
3.462621 -0.064699836 1.4168817 1.8245751e-38
3.5026028 -0.07059022 1.4202571 1.2895543e-38
3.5421689 -0.071374804 1.4115931 8.3764942e-39
3.396368 -0.0097248647 1.4038943 1.0386117e-38
3.4304273 -0.021640718 1.4065337 1.0120347e-38
3.4606662 -0.02376138 1.4221539 1.1968962e-38
3.4820778 -0.016787203 1.4336164 1.2151929e-38
