# .PCD v0.7 - Point Cloud Data file format
VERSION 0.7
FIELDS x y z rgb
SIZE 4 4 4 4
TYPE F F F F
COUNT 1 1 1 1
WIDTH 1021
HEIGHT 1
VIEWPOINT 0 0 0 1 0 0 0
POINTS 1021
DATA ascii
1.7771174 0.13855058 -0.64651519 1.4284214e-38
1.8171282 0.14162274 -0.64660096 1.4284214e-38
1.8584108 0.13792019 -0.64607388 1.4376051e-38
1.8885098 0.14656818 -0.64525735 1.4376409e-38
1.9411293 0.12956302 -0.64143425 1.4468244e-38
2.1380684 0.13230869 -0.64164615 1.456116e-38
1.6203798 0.18137403 -0.65433508 1.41913e-38
1.6603068 0.18070474 -0.65173048 1.4283496e-38
1.6980113 0.17819811 -0.64838219 1.4283496e-38
1.7431444 0.18023156 -0.64943111 1.4283856e-38
1.7753909 0.18091086 -0.64725137 1.4283494e-38
1.8226624 0.17854056 -0.64905602 1.419094e-38
1.8532637 0.1822475 -0.64629656 1.4283134e-38
1.8956379 0.16901274 -0.64301169 1.4283494e-38
1.931785 0.17378968 -0.64121598 1.4283135e-38
1.6174929 0.220202 -0.65687287 1.4099104e-38
1.659575 0.21966401 -0.65242016 1.41913e-38
1.6970246 0.21980669 -0.65033311 1.4283494e-38
1.7420124 0.22073251 -0.65160561 1.4283494e-38
1.7743163 0.22047397 -0.64782524 1.4283494e-38
1.8215834 0.2199863 -0.64758456 1.4283853e-38
1.8529838 0.21905147 -0.64528722 1.4283853e-38
1.8967555 0.23038523 -0.6415897 1.437605e-38
1.9370558 0.22170684 -0.64115947 1.4376048e-38
1.9629061 0.22350144 -0.64404953 1.4467884e-38
2.0727026 0.2279273 -0.64016223 1.4007629e-38
1.6176229 0.26007763 -0.65501845 1.419094e-38
1.6604062 0.25950789 -0.65216058 1.4191298e-38
1.6962423 0.25954965 -0.65035492 1.4283494e-38
1.7387716 0.2603946 -0.65016323 1.4283494e-38
1.7807117 0.25917384 -0.64965856 1.4283853e-38
1.8228427 0.26086843 -0.65061599 1.4283853e-38
1.8538555 0.26016194 -0.64697891 1.4283853e-38
1.8991641 0.25760424 -0.64213163 1.4376048e-38
1.9340518 0.25399214 -0.64215541 1.4376047e-38
1.6167995 0.29973832 -0.65504938 1.4282775e-38
1.6608343 0.3000229 -0.65288186 1.4374971e-38
1.6950747 0.30124769 -0.65083039 1.437533e-38
1.7427531 0.29979032 -0.65098208 1.4283494e-38
1.775539 0.29987365 -0.64665353 1.4283853e-38
1.8222767 0.30062738 -0.65008968 1.4283851e-38
1.860347 0.29920024 -0.6480239 1.4283853e-38
1.895241 0.30523723 -0.64429516 1.4283853e-38
1.9340394 0.30580363 -0.64173317 1.4192376e-38
1.980798 0.31373012 -0.64110398 1.428385e-38
2.0170391 0.31122252 -0.64090347 1.428385e-38
2.0555875 0.303036 -0.64186525 1.437605e-38
2.1005812 0.31651887 -0.64036357 1.4743751e-38
1.6163642 0.34064606 -0.65431231 1.4190937e-38
1.6606476 0.34033358 -0.65202481 1.4283133e-38
1.6972229 0.33776081 -0.64903224 1.4283493e-38
1.7432743 0.33879057 -0.65082347 1.4283493e-38
1.7757329 0.34189194 -0.64838862 1.4283493e-38
1.824721 0.34031418 -0.65146941 1.4283493e-38
1.857188 0.33941871 -0.64715618 1.4283853e-38
1.8926944 0.33929956 -0.64543611 1.4283851e-38
1.9420675 0.33983949 -0.64262003 1.428385e-38
1.9704787 0.34331453 -0.64241338 1.428385e-38
2.020998 0.3287442 -0.64095461 1.4283851e-38
2.0441911 0.34396613 -0.64000738 1.4283854e-38
2.1027877 0.34360865 -0.6409328 1.4376048e-38
1.6189028 0.3790479 -0.65645522 1.4098741e-38
1.6593572 0.37793821 -0.65236211 1.4190937e-38
1.6988708 0.38318989 -0.65062463 1.4190936e-38
1.7413236 0.37822169 -0.65252441 1.4191296e-38
1.7769229 0.37987626 -0.65002352 1.4191296e-38
1.8187356 0.37946478 -0.64858752 1.4191654e-38
1.8609518 0.38112986 -0.64961612 1.4283491e-38
1.8990959 0.37980187 -0.64729911 1.4283493e-38
1.9378533 0.37598312 -0.64142823 1.428385e-38
1.9749339 0.3809889 -0.64124799 1.4283493e-38
2.0120616 0.39479715 -0.64180517 1.4375328e-38
2.054985 0.37808082 -0.64042765 1.4375687e-38
1.6194376 0.42116395 -0.65629297 1.4006546e-38
1.6602756 0.42028043 -0.65289593 1.409874e-38
1.6991433 0.41915801 -0.65092319 1.4099099e-38
1.7398666 0.42343384 -0.64908212 1.40991e-38
1.7790549 0.41792101 -0.65069175 1.4190934e-38
1.8193352 0.42071036 -0.64849401 1.4191653e-38
1.8603882 0.41926682 -0.64699596 1.4191653e-38
1.8997157 0.41892961 -0.64592594 1.4283488e-38
1.9346496 0.42500469 -0.64416009 1.428349e-38
1.9754739 0.42236823 -0.64174336 1.4283849e-38
2.0172722 0.40875277 -0.64246136 1.4283493e-38
2.0591352 0.4133963 -0.64045817 1.4375327e-38
1.6201047 0.45856655 -0.65456432 1.4006184e-38
1.6609839 0.46207717 -0.651362 1.4006184e-38
1.7000384 0.45952484 -0.65013885 1.4006543e-38
1.7389803 0.46037468 -0.64801723 1.4098739e-38
1.7794464 0.4606972 -0.6482721 1.4099099e-38
1.8185871 0.45923731 -0.64823824 1.4190936e-38
1.8585377 0.46137574 -0.64799958 1.4191294e-38
1.8982871 0.45891592 -0.64755809 1.4283488e-38
1.9314024 0.46234772 -0.645863 1.428349e-38
1.9719455 0.44944033 -0.64303219 1.428349e-38
2.0228815 0.44813335 -0.64039487 1.4283488e-38
1.626283 0.50128835 -0.65892655 1.4006183e-38
1.6579983 0.50083089 -0.6514042 1.4006183e-38
1.7008778 0.50049704 -0.64839369 1.4006184e-38
1.7375734 0.5008803 -0.64715749 1.4098378e-38
1.780045 0.50022006 -0.64647508 1.4098739e-38
1.8196026 0.49816683 -0.64779377 1.4099099e-38
1.8563994 0.49908295 -0.64663666 1.4190934e-38
1.8991581 0.50061548 -0.64619005 1.4191293e-38
1.9353257 0.49763641 -0.64538181 1.4191294e-38
1.9662315 0.50042617 -0.64402694 1.4283488e-38
2.0228455 0.49460599 -0.64039314 1.3916152e-38
1.5800492 0.54154676 -0.6548602 1.4098021e-38
1.6194077 0.54109877 -0.65283549 1.4098378e-38
1.6616465 0.53991044 -0.64978224 1.4006183e-38
1.699227 0.54097533 -0.64774781 1.4006183e-38
1.7385141 0.53930539 -0.64494807 1.4006543e-38
1.7807536 0.53829736 -0.64480865 1.4098739e-38
1.8187579 0.54207772 -0.64678377 1.4098737e-38
1.8562682 0.53981405 -0.64585447 1.4099097e-38
1.8996922 0.53538215 -0.6450727 1.4190934e-38
1.9352531 0.5391922 -0.64384776 1.4190934e-38
1.9707452 0.5470559 -0.64331698 1.4191294e-38
2.0227976 0.5565694 -0.64039081 1.4282418e-38
1.5776435 0.57949704 -0.65315926 1.4098018e-38
1.6177298 0.57966554 -0.64905965 1.4190214e-38
1.6575625 0.57936859 -0.64401281 1.4190573e-38
1.6993512 0.57816011 -0.64425743 1.4098377e-38
1.7376577 0.57661289 -0.64423275 1.4098377e-38
1.7791206 0.57734007 -0.64361882 1.400654e-38
1.8172839 0.58040422 -0.64612663 1.4006541e-38
1.8598566 0.57779711 -0.64664835 1.4098736e-38
1.8959506 0.58518928 -0.64472097 1.4099097e-38
1.9386488 0.58195847 -0.64321917 1.4099099e-38
1.9805366 0.57974315 -0.64318597 1.4190936e-38
2.0143185 0.59197098 -0.64409745 1.4190934e-38
2.0626192 0.58045995 -0.64073962 1.4190934e-38
2.0883212 0.58634204 -0.64175838 1.40991e-38
1.5758152 0.61926514 -0.65478516 1.3913628e-38
1.6202601 0.62002575 -0.65063596 1.4098018e-38
1.6581471 0.61895674 -0.64384055 1.4282408e-38
1.6958816 0.61876559 -0.64247012 1.4282409e-38
1.7419722 0.6165244 -0.64222699 1.4190573e-38
1.7850224 0.62031275 -0.64292914 1.4190214e-38
1.8189929 0.62076479 -0.64336962 1.4098377e-38
1.8604114 0.61800694 -0.64384365 1.4098377e-38
1.8989543 0.61610907 -0.64450008 1.40069e-38
1.938184 0.62118977 -0.6439032 1.4098737e-38
1.9788895 0.61802667 -0.64357084 1.4099097e-38
2.0192912 0.62000608 -0.6444031 1.4190934e-38
2.0515749 0.61774385 -0.64111787 1.4099097e-38
2.109997 0.61062109 -0.64280891 1.428313e-38
2.1267838 0.63783538 -0.64009207 1.4282779e-38
1.5478523 0.65866506 -0.65329242 1.3821074e-38
1.5781491 0.66157162 -0.65132666 1.3821075e-38
1.6171714 0.6589781 -0.64919055 1.4005464e-38
1.6604704 0.65960956 -0.64520282 1.4189854e-38
1.6928047 0.66083723 -0.64385879 1.4190212e-38
1.738577 0.66358495 -0.64166641 1.4190211e-38
1.7890439 0.65977323 -0.64255106 1.4190571e-38
1.8214746 0.65845859 -0.64337826 1.4190573e-38
1.8612466 0.65332747 -0.64352548 1.4098377e-38
1.89353 0.6570273 -0.64300638 1.4098377e-38
1.9434588 0.65118742 -0.64298093 1.4098737e-38
1.978227 0.65177369 -0.64377069 1.4190571e-38
2.0230327 0.6561383 -0.64299357 1.4098737e-38
2.060029 0.66937351 -0.64228022 1.4099096e-38
2.1019027 0.66683489 -0.64216608 1.4190574e-38
2.1309791 0.65086508 -0.64326745 1.40991e-38
1.550367 0.69837034 -0.65696222 1.3637043e-38
1.5816274 0.70270467 -0.65596122 1.3729239e-38
1.6166556 0.70058274 -0.64923608 1.3821074e-38
1.6584116 0.70032805 -0.64563185 1.4005464e-38
1.6974834 0.70016026 -0.64407271 1.4005824e-38
1.7385101 0.70072222 -0.64228523 1.4005823e-38
1.7728943 0.70293653 -0.64215249 1.4006183e-38
1.8207122 0.70043385 -0.64202005 1.4098017e-38
1.8523548 0.7094934 -0.64175785 1.4098376e-38
1.9084628 0.6948002 -0.64302516 1.4098377e-38
1.9319485 0.70038199 -0.642878 1.4098377e-38
1.9768066 0.70886463 -0.64251453 1.4098378e-38
2.0199456 0.70153409 -0.64208651 1.4098018e-38
2.0616839 0.69713432 -0.64305168 1.4098377e-38
2.0959849 0.68410528 -0.64415377 1.4099096e-38
2.1341648 0.69023269 -0.64318675 1.4190931e-38
2.1684642 0.69861239 -0.64185631 1.4190933e-38
2.2990313 0.69930452 -0.6410774 1.4282407e-38
1.519743 0.7462188 -0.64862305 1.3545202e-38
1.5479165 0.74046123 -0.6536572 1.3544847e-38
1.5779374 0.73646319 -0.65213311 1.3637043e-38
1.6186405 0.73884547 -0.64765215 1.3728878e-38
1.6595873 0.74026644 -0.64512676 1.3821074e-38
1.6948241 0.73851019 -0.64299423 1.3821433e-38
1.7369983 0.73862922 -0.64223206 1.3913267e-38
1.7762871 0.73570967 -0.64185059 1.3913627e-38
1.8215072 0.7391969 -0.64174253 1.4005821e-38
1.8529856 0.72738659 -0.64213973 1.4098017e-38
1.8892899 0.73380202 -0.64154327 1.4098377e-38
1.949376 0.73420322 -0.64096993 1.4190214e-38
1.9769469 0.73459589 -0.64337635 1.4098378e-38
2.0112543 0.73717695 -0.64250642 1.4190214e-38
2.0574117 0.72925395 -0.64221966 1.4190212e-38
2.0871232 0.726129 -0.64167899 1.4190217e-38
2.5548611 0.7451486 -0.64769471 1.4099452e-38
2.5729637 0.74780899 -0.65073401 1.4282765e-38
1.5473341 0.77901083 -0.65236098 1.3544846e-38
1.5787641 0.78028345 -0.65071905 1.3544846e-38
1.6214979 0.77880132 -0.65013808 1.3545206e-38
1.6555825 0.77900809 -0.64473599 1.3637041e-38
1.7023882 0.77405912 -0.64225858 1.3729237e-38
1.7363245 0.77659124 -0.64191127 1.3821431e-38
1.7856817 0.78317803 -0.64154452 1.3821433e-38
1.8241457 0.78064531 -0.64238054 1.391327e-38
1.8508481 0.78483069 -0.64253742 1.3913628e-38
1.8919917 0.7998727 -0.64298803 1.3913986e-38
1.9573352 0.79831171 -0.64132249 1.4005828e-38
1.9872681 0.76402467 -0.64189386 1.4098022e-38
2.0103543 0.77554166 -0.64207178 1.4098378e-38
2.0541553 0.77164459 -0.64158916 1.4190215e-38
2.3135211 0.76873112 -0.64048404 1.4374605e-38
2.3754323 0.78492987 -0.64024812 1.4282419e-38
1.5450526 0.82000786 -0.65224344 1.3360813e-38
1.5815473 0.81983417 -0.65116978 1.3361172e-38
1.6184005 0.81874675 -0.64854658 1.3453009e-38
1.6565785 0.81571305 -0.64661658 1.3545205e-38
1.6949716 0.82147992 -0.64372623 1.3545205e-38
1.7413763 0.82563269 -0.64288062 1.3637041e-38
1.7826716 0.82024097 -0.64277142 1.3729596e-38
1.8147709 0.81802475 -0.64175934 1.382143e-38
1.8600204 0.81593925 -0.64115703 1.3913627e-38
1.8948941 0.82594711 -0.64156687 1.3913627e-38
1.9435725 0.82744449 -0.64115578 1.4005464e-38
1.9737788 0.82306677 -0.64266515 1.4005824e-38
2.0165076 0.80956775 -0.64128292 1.400618e-38
2.0564697 0.82870352 -0.64192158 1.4006181e-38
2.0998373 0.83228827 -0.64133239 1.4098021e-38
2.4222093 0.81278276 -0.64198536 1.4190934e-38
2.4586065 0.83126861 -0.64295542 1.4190573e-38
1.5437937 0.85352343 -0.65153414 1.3360812e-38
1.5801916 0.85903913 -0.65154761 1.3360813e-38
1.6207275 0.86072844 -0.64896971 1.3361172e-38
1.6611561 0.86176562 -0.64777792 1.3453009e-38
1.7021348 0.86163509 -0.64817029 1.345301e-38
1.7346288 0.86592227 -0.6470716 1.3545205e-38
1.7797549 0.85790116 -0.64337665 1.36374e-38
1.81379 0.85987413 -0.64200163 1.3729237e-38
1.8514725 0.85853893 -0.64042425 1.3821789e-38
1.90204 0.84929031 -0.64256728 1.3913627e-38
1.9400871 0.85968953 -0.64192861 1.3913628e-38
1.9709594 0.85566556 -0.6422497 1.3913627e-38
2.0267477 0.8712908 -0.64079964 1.4097298e-38
2.0621641 0.85099232 -0.64215893 1.409766e-38
2.0956933 0.853302 -0.6428346 1.4006184e-38
2.1269174 0.84919178 -0.64016229 1.4281685e-38
2.4737663 0.84246778 -0.6459837 1.4374242e-38
2.4904685 0.8478443 -0.65002644 1.4282051e-38
1.5881686 0.88586456 -0.6522159 1.3268976e-38
1.6231283 0.89304888 -0.64972818 1.3361171e-38
1.6562376 0.90131199 -0.64675546 1.3361172e-38
1.697364 0.89845222 -0.64489233 1.3453008e-38
1.734717 0.89934534 -0.64572799 1.3453368e-38
1.7768842 0.90037555 -0.64462882 1.3545203e-38
1.8109976 0.89836454 -0.64329469 1.3637399e-38
1.8566167 0.90284199 -0.64144385 1.3821431e-38
1.9049927 0.90592194 -0.64159358 1.3821791e-38
1.9418002 0.89283866 -0.64176393 1.3913628e-38
1.9732257 0.89367568 -0.64305961 1.3821791e-38
2.0228581 0.89916939 -0.64092773 1.4005467e-38
2.0530939 0.913634 -0.64374012 1.4005821e-38
2.1062486 0.88819349 -0.64079899 1.4098014e-38
1.6630437 0.92487687 -0.64453912 1.3453009e-38
1.6973934 0.93724889 -0.64527047 1.3453366e-38
1.7431858 0.93968481 -0.64536929 1.3453366e-38
1.7784894 0.94155455 -0.6443845 1.3545562e-38
1.8130311 0.94176185 -0.64360625 1.3637399e-38
1.8643959 0.94330847 -0.64260751 1.3637758e-38
1.8934176 0.94240826 -0.64207709 1.3729593e-38
1.932832 0.92743975 -0.64158338 1.382179e-38
1.9900326 0.95038885 -0.64063901 1.3821793e-38
2.023257 0.94007599 -0.64164197 1.382179e-38
2.0604157 0.94148552 -0.64268333 1.4005464e-38
2.0964382 0.94250965 -0.64475828 1.4189136e-38
2.1931655 0.95989823 -0.6400761 1.3914001e-38
2.2215822 0.93962824 -0.64113921 1.409801e-38
1.7162502 0.96180499 -0.64586383 1.3453008e-38
1.739687 0.96777201 -0.64400458 1.3453366e-38
1.777662 0.97788483 -0.64264041 1.3545202e-38
1.8233144 0.97612965 -0.64478362 1.3545562e-38
1.8629 0.97968829 -0.64423084 1.3545562e-38
1.8918252 0.97916108 -0.64305025 1.3637759e-38
1.9418204 0.98069006 -0.64303559 1.382143e-38
1.9792037 0.98423666 -0.64348567 1.3729594e-38
2.0146341 0.98492694 -0.64310217 1.3729597e-38
2.065155 0.96442509 -0.64371759 1.4005461e-38
2.188704 0.96943218 -0.64138806 1.4006183e-38
2.2260306 0.9818657 -0.6417895 1.4006179e-38
1.7968932 1.0056977 -0.64011699 1.3545559e-38
1.8289568 1.012868 -0.64467657 1.3545562e-38
1.8609972 1.0150899 -0.64515805 1.3545203e-38
1.8881795 1.0147858 -0.64682263 1.3637039e-38
1.9550104 1.0025489 -0.64686006 1.3637765e-38
1.9805626 1.0100092 -0.643924 1.3729594e-38
2.0111191 1.0199647 -0.64323962 1.3821431e-38
2.2858675 1.0261071 -0.6437453 1.4006536e-38
1.864656 1.0444164 -0.64240956 1.3453728e-38
1.9066616 1.0537784 -0.64190829 1.3637043e-38
1.9325204 1.0749545 -0.64142448 1.3637756e-38
2.0257981 1.0497684 -0.6422655 1.3729593e-38
2.1435246 1.055881 -0.64345503 1.3913264e-38
2.2250512 1.0478908 -0.64340127 1.4097655e-38
2.2605767 1.0667264 -0.64268899 1.4005105e-38
2.2962732 1.0665413 -0.64227462 1.4096938e-38
2.3467338 1.0457987 -0.64607066 1.4005824e-38
2.3761773 1.0604682 -0.65736777 1.4005828e-38
1.9545765 1.0985757 -0.64112896 1.3545916e-38
1.9657694 1.1020331 -0.64328152 1.3545573e-38
2.0850015 1.1135986 -0.64238346 1.3821066e-38
2.2210529 1.1119201 -0.64218807 1.3913626e-38
2.7182405 1.103227 -0.67736006 1.4189858e-38
2.0520267 1.1270032 -0.64658076 1.3454087e-38
2.2229273 1.1251893 -0.6414876 1.4005107e-38
2.1489973 1.189429 -0.64415026 1.3546631e-38
2.1655765 1.2056723 -0.6503346 1.3729586e-38
2.6404576 1.2073053 -0.64653271 1.4005462e-38
2.4667647 1.2677891 -0.64742047 1.4098014e-38
2.4967203 1.2720073 -0.64967495 1.4098015e-38
2.5204849 1.2773533 -0.65790737 1.4189858e-38
2.4222565 1.3031752 -0.64310765 1.3821431e-38
2.4648752 1.2985442 -0.64525825 1.3913627e-38
2.4962025 1.2923357 -0.64933562 1.4005461e-38
2.5428822 1.3005348 -0.66506636 1.400618e-38
2.5629659 1.3003163 -0.67683214 1.3914346e-38
2.391047 1.3349848 -0.66106826 1.3638123e-38
2.425127 1.3262947 -0.64417684 1.3821783e-38
2.4615209 1.3375033 -0.64761543 1.382107e-38
2.4831803 1.3423427 -0.65525079 1.3913265e-38
2.4960618 1.365923 -0.66116202 1.391398e-38
2.973604 -1.8004131 -0.60442346 1.2532146e-38
2.9786062 -1.7807339 -0.60300314 1.2624339e-38
3.0171256 -1.7715762 -0.6064409 1.253215e-38
3.0585787 -1.7685498 -0.61046642 1.2715102e-38
3.0837498 -1.7665128 -0.60149181 1.2716538e-38
2.8976588 -1.7443681 -0.60033214 1.2992043e-38
2.9321282 -1.7340505 -0.6058895 1.2900209e-38
2.9756746 -1.7329187 -0.60429323 1.2439594e-38
3.0146446 -1.7417889 -0.60256541 1.2531431e-38
3.0557461 -1.7508858 -0.6077742 1.2623262e-38
2.8131649 -1.6881994 -0.60361665 1.2900211e-38
2.8613143 -1.7021849 -0.60519648 1.3176079e-38
2.9001594 -1.6960971 -0.601542 1.2900211e-38
2.9337156 -1.6978872 -0.60394609 1.2716175e-38
2.9764409 -1.6973028 -0.60534376 1.2807656e-38
3.0117412 -1.7027501 -0.60776412 1.2898414e-38
2.7522476 -1.6505808 -0.60515046 1.3083531e-38
2.7762046 -1.6635255 -0.60445887 1.3083885e-38
2.808624 -1.6649421 -0.60280633 1.2992046e-38
2.8598392 -1.6544912 -0.60290283 1.308424e-38
2.8995731 -1.6576983 -0.60181135 1.2992043e-38
2.9379325 -1.6610062 -0.60249221 1.3912556e-38
2.977437 -1.6567547 -0.60455447 1.6124533e-38
2.6773996 -1.6041216 -0.61186838 1.2808015e-38
2.7082789 -1.6073955 -0.6058296 1.2899852e-38
2.7471626 -1.6213261 -0.60466081 1.2992048e-38
2.7769885 -1.6017175 -0.6095376 1.2900214e-38
2.8158281 -1.6247 -0.60305798 1.308388e-38
2.8610702 -1.6150633 -0.60447264 1.2900212e-38
2.8991182 -1.6150053 -0.60289741 1.5201856e-38
2.9427645 -1.6190473 -0.60467565 1.7507827e-38
2.9742491 -1.6061583 -0.60878253 1.7415634e-38
3.0009966 -1.6079917 -0.61656916 1.741599e-38
2.6342525 -1.5683755 -0.60650933 1.3083533e-38
2.6646178 -1.5738899 -0.60596323 1.3267916e-38
2.7018483 -1.5842358 -0.60569698 1.3083524e-38
2.7282825 -1.5943391 -0.60541368 1.2808374e-38
2.7769728 -1.5759411 -0.6097641 1.2992045e-38
2.8126228 -1.5714719 -0.60363579 1.3451941e-38
2.8635786 -1.5730128 -0.60518485 1.7046133e-38
2.8965776 -1.5824907 -0.60503769 1.7323077e-38
2.9302397 -1.5875826 -0.6059494 1.7323799e-38
2.9813509 -1.5878419 -0.60694808 1.7692218e-38
2.5455296 -1.5233682 -0.60616612 1.4282069e-38
2.58374 -1.530876 -0.60491353 1.5018905e-38
2.6218457 -1.5380747 -0.60529971 1.4281703e-38
2.661051 -1.5344138 -0.6042766 1.3820371e-38
2.7019911 -1.5336539 -0.60641897 1.35445e-38
2.7454832 -1.5352196 -0.60425931 1.4096946e-38
2.7773626 -1.5394013 -0.60854614 1.5110742e-38
2.8164487 -1.5381529 -0.60520571 1.6678072e-38
2.8608618 -1.5405447 -0.60538161 1.5664275e-38
2.8938906 -1.5460118 -0.60618854 1.5940493e-38
2.9486506 -1.5354021 -0.60310584 1.7509628e-38
3.0309589 -1.522058 -0.60355985 1.6033066e-38
3.0591946 -1.531711 -0.60871446 1.5849748e-38
3.090138 -1.5465807 -0.60205519 1.3174271e-38
2.4650149 -1.4875175 -0.60680246 1.3268643e-38
2.5039182 -1.4952155 -0.6065371 1.3544508e-38
2.5394588 -1.4962819 -0.60678959 1.409732e-38
2.5783947 -1.5004096 -0.60530835 1.5110745e-38
2.6184895 -1.5071825 -0.60412866 1.5110741e-38
2.6675732 -1.5047377 -0.60620475 1.4466093e-38
2.7081532 -1.494024 -0.60543931 1.6493318e-38
2.7458038 -1.4960446 -0.60607654 1.6216734e-38
2.7776544 -1.4991598 -0.60842669 1.5570643e-38
2.8124399 -1.5010881 -0.60516524 1.4556127e-38
2.8589852 -1.5012318 -0.60592651 1.5292966e-38
2.8937075 -1.4979807 -0.60368192 1.603233e-38
2.3922904 -1.445606 -0.61466241 1.3084608e-38
2.4169285 -1.4527274 -0.60779649 1.3176443e-38
2.4613125 -1.4623299 -0.6073426 1.3176084e-38
2.5006499 -1.4563013 -0.60731602 1.4097676e-38
2.5346811 -1.4576107 -0.60627836 1.4927434e-38
2.5752771 -1.4585915 -0.60319895 1.4558294e-38
2.6228933 -1.4580104 -0.6052072 1.5387689e-38
2.6626518 -1.4595814 -0.60616088 1.6585872e-38
2.7084706 -1.456404 -0.60653001 1.5200777e-38
2.7402117 -1.4556754 -0.60528803 1.5014942e-38
2.7760451 -1.4602759 -0.60772467 1.5014581e-38
2.8140264 -1.4621402 -0.60447949 1.4739077e-38
2.8554711 -1.4633018 -0.60431975 1.5663542e-38
2.9008205 -1.4724096 -0.60107559 1.6493674e-38
2.9784312 -1.4510232 -0.60304254 1.7324145e-38
2.3170033 -1.4040258 -0.61784047 1.3085326e-38
2.3422568 -1.4102403 -0.61497933 1.3176802e-38
2.3814242 -1.4181702 -0.61383724 1.3176443e-38
2.4159214 -1.4217186 -0.60867447 1.3451948e-38
2.4633846 -1.4186798 -0.60974032 1.3544145e-38
2.4946897 -1.4202493 -0.60749716 1.4005482e-38
2.5364103 -1.4221894 -0.60499495 1.4281706e-38
2.5824256 -1.4199611 -0.60505021 1.5939785e-38
2.620657 -1.4208905 -0.6061644 1.6493319e-38
2.6580729 -1.4250124 -0.60479969 1.5110023e-38
2.7067087 -1.4189289 -0.60549283 1.50153e-38
2.7440741 -1.42285 -0.60450977 1.4831267e-38
2.7755461 -1.4173921 -0.60605276 1.5110012e-38
2.8083189 -1.4176726 -0.60452813 1.6033046e-38
2.8617406 -1.4144694 -0.60355842 1.7139032e-38
2.9014452 -1.4124682 -0.60131693 1.7690041e-38
2.9376736 -1.4203647 -0.60802406 1.8242143e-38
2.9784133 -1.4169153 -0.6030466 1.7324868e-38
3.0353296 -1.4039583 -0.60310072 1.6679148e-38
3.0623295 -1.4044752 -0.60840368 1.686389e-38
3.0913115 -1.4111695 -0.60424387 1.4187694e-38
2.2689047 -1.3684719 -0.62357712 1.3177162e-38
2.2997372 -1.3779324 -0.62036383 1.3176803e-38
2.338475 -1.3790276 -0.61807501 1.3176802e-38
2.3780684 -1.3805623 -0.61201465 1.3176443e-38
2.4173291 -1.3786013 -0.6073643 1.336083e-38
2.4607992 -1.3763497 -0.60976654 1.3360833e-38
2.4947798 -1.3783917 -0.60677803 1.4097316e-38
2.5399795 -1.3763374 -0.60695952 1.6862458e-38
2.5828896 -1.3789741 -0.60798782 1.5940864e-38
2.6151817 -1.3816607 -0.60588914 1.4465373e-38
2.6638947 -1.3780675 -0.60534447 1.4648679e-38
2.7039223 -1.3837056 -0.60557783 1.5293683e-38
2.7446115 -1.3879062 -0.60506094 1.6032327e-38
2.7747808 -1.3879223 -0.60921949 1.6770608e-38
2.8064911 -1.3869776 -0.60468197 1.7139029e-38
2.8608119 -1.3866888 -0.60410124 2.0276556e-38
2.9006655 -1.3793683 -0.60201687 1.7969146e-38
2.9314461 -1.3837503 -0.60341799 1.7508173e-38
3.0216122 -1.3735986 -0.60364306 1.6772769e-38
3.0583029 -1.389109 -0.6062482 1.6033408e-38
3.0867817 -1.3851368 -0.60248905 1.4095856e-38
2.2651091 -1.3385952 -0.62381905 1.326864e-38
2.2970095 -1.3417994 -0.62154663 1.3176802e-38
2.337759 -1.3405508 -0.61586404 1.3268996e-38
2.3777318 -1.3431621 -0.60820931 1.3361192e-38
2.420898 -1.338444 -0.61218983 1.3821091e-38
2.4575608 -1.3422239 -0.6106475 1.5110746e-38
2.4918888 -1.3442945 -0.60774094 1.6677712e-38
2.5419688 -1.3392191 -0.60504484 1.6494751e-38
2.5832086 -1.33735 -0.60543054 1.5110019e-38
2.6222992 -1.3382262 -0.6066981 1.5663187e-38
2.661592 -1.3402168 -0.60598189 1.6769529e-38
2.7027519 -1.3399235 -0.60727596 1.7876957e-38
2.7422771 -1.344214 -0.60862947 1.8892185e-38
2.7627532 -1.354129 -0.60326707 1.7690401e-38
2.8088295 -1.3407007 -0.60427922 2.0093257e-38
2.8603005 -1.3352102 -0.603607 1.7140473e-38
2.894496 -1.3455416 -0.60449517 1.6955361e-38
2.9324601 -1.3382745 -0.60641044 1.6955004e-38
2.9768007 -1.3437834 -0.60415405 1.7507817e-38
3.0157855 -1.3519251 -0.60266668 1.6864243e-38
2.1753228 -1.2993081 -0.62538385 1.3268999e-38
2.2186663 -1.2992237 -0.62409216 1.3360834e-38
2.2628734 -1.3001378 -0.62111646 1.3268996e-38
2.30249 -1.2981145 -0.61751932 1.3269355e-38
2.3339148 -1.3007315 -0.61250943 1.3453386e-38
2.386353 -1.2984523 -0.61498022 1.566392e-38
2.4188297 -1.2961798 -0.61429715 1.6770627e-38
2.4569254 -1.2977309 -0.61132586 1.6586593e-38
2.4975717 -1.2983021 -0.60647362 1.6494035e-38
2.5414476 -1.3010478 -0.60691023 1.6309999e-38
2.5832376 -1.2997022 -0.60748196 1.667806e-38
2.6233382 -1.3021978 -0.60660976 1.6955008e-38
2.6628277 -1.2989346 -0.60681313 1.815427e-38
2.6972165 -1.2984189 -0.60870981 1.8985833e-38
2.7501094 -1.3029323 -0.6056326 1.7972398e-38
2.7724118 -1.2949566 -0.60579735 1.6678777e-38
2.8094397 -1.3015864 -0.6029219 1.677097e-38
2.8548009 -1.304931 -0.60175472 1.6863884e-38
2.9000096 -1.2991921 -0.60137534 1.7047555e-38
2.9359412 -1.3053113 -0.60676038 1.7139752e-38
3.0243163 -1.2968007 -0.60300243 1.7232668e-38
2.0630965 -1.2487881 -0.63005584 1.4742683e-38
2.102088 -1.2610745 -0.62937135 1.3544865e-38
2.1405323 -1.2618728 -0.62866819 1.3361193e-38
2.1797867 -1.2607508 -0.62794036 1.3453386e-38
2.21826 -1.2595661 -0.62352175 1.3269356e-38
2.2615316 -1.2581351 -0.61891389 1.3361192e-38
2.2992496 -1.2625537 -0.61487794 1.4190229e-38
2.3393958 -1.2602004 -0.61526525 1.658623e-38
2.3835027 -1.2627437 -0.61960924 1.6586594e-38
2.4184368 -1.2612153 -0.61638361 1.621781e-38
2.4603205 -1.2612332 -0.61210001 1.6309644e-38
2.4979651 -1.2570416 -0.60962361 1.6678422e-38
2.5443144 -1.259552 -0.60910684 1.7231949e-38
2.5809519 -1.2614915 -0.60862046 1.6770973e-38
2.622797 -1.2593091 -0.60934728 1.8060994e-38
2.658968 -1.2614701 -0.60513854 1.7969877e-38
2.6983376 -1.2675997 -0.60729516 1.6955724e-38
2.7445006 -1.2507181 -0.60233855 1.6678767e-38
2.7713263 -1.2542377 -0.60596472 1.6679132e-38
2.8127825 -1.259374 -0.60358912 1.6862804e-38
2.86059 -1.2558668 -0.60363919 1.6955004e-38
2.8962681 -1.263043 -0.60354751 1.7139754e-38
2.9230697 -1.2608929 -0.61058652 1.6863891e-38
2.9738219 -1.270267 -0.60691077 1.6588033e-38
3.0057607 -1.2542706 -0.61008936 1.5572787e-38
3.054882 -1.241454 -0.60823041 1.5572061e-38
1.995203 -1.2043496 -0.62947494 1.5479889e-38
2.0219913 -1.2149903 -0.63021797 1.5388052e-38
2.0576563 -1.2195477 -0.62771529 1.5019627e-38
2.0998614 -1.2213835 -0.62639332 1.3821451e-38
2.1420934 -1.218251 -0.63052285 1.3453029e-38
2.1775889 -1.2198248 -0.62908703 1.336155e-38
2.2205129 -1.2195507 -0.62452972 1.3821808e-38
2.2596011 -1.2201812 -0.61556691 1.5940866e-38
2.2968917 -1.219409 -0.61439788 1.640292e-38
2.3419943 -1.2200859 -0.61475074 1.621781e-38
2.3827908 -1.2189665 -0.61487097 1.6310004e-38
2.4189079 -1.220178 -0.6138463 1.6494034e-38
2.462431 -1.219837 -0.6132825 1.7139039e-38
2.4975328 -1.2190424 -0.61092073 1.8430491e-38
2.5442188 -1.219925 -0.61086226 1.9444996e-38
2.5785296 -1.2187071 -0.61064631 1.8709243e-38
2.6167328 -1.2244457 -0.60691118 1.7325588e-38
2.6527255 -1.2241398 -0.60244673 1.6494383e-38
2.7049863 -1.2109197 -0.60245115 1.6586939e-38
2.7443998 -1.215701 -0.60442638 1.6863161e-38
2.7737141 -1.2198402 -0.60599583 1.7139387e-38
2.8100514 -1.2180138 -0.60360605 1.7323425e-38
2.8589535 -1.2265786 -0.60330904 1.6863531e-38
2.8977094 -1.2319989 -0.6046803 1.612741e-38
2.9778183 -1.2148046 -0.60423827 1.5572788e-38
3.0282955 -1.2225258 -0.60504067 1.5388757e-38
1.9163634 -1.1617119 -0.63497728 1.5572082e-38
1.9460639 -1.1709205 -0.63447714 1.5479891e-38
1.9815222 -1.1807133 -0.63245767 1.5480249e-38
2.0191743 -1.180863 -0.62880731 1.5572083e-38
2.0582967 -1.1814346 -0.62702984 1.5388048e-38
2.1020055 -1.1792731 -0.63048869 1.4559009e-38
2.1369369 -1.180442 -0.63249022 1.4097316e-38
2.1778505 -1.17791 -0.63124365 1.5479888e-38
2.2216196 -1.1789457 -0.62358028 1.5480609e-38
2.2592256 -1.180204 -0.61692798 1.5112184e-38
2.2968836 -1.1789074 -0.6137647 1.6126329e-38
2.3408477 -1.1786317 -0.61586803 1.6678422e-38
2.3816981 -1.1805137 -0.61769557 1.7047204e-38
2.4193916 -1.17799 -0.61766934 1.7600733e-38
2.4604778 -1.1809489 -0.61473674 1.7785489e-38
2.4988575 -1.1784238 -0.61323762 1.7509619e-38
2.540575 -1.1796997 -0.61084545 1.7049363e-38
2.5763674 -1.1860059 -0.6054312 1.6034129e-38
2.615895 -1.1810112 -0.60404372 1.6034847e-38
2.6609669 -1.1759554 -0.60334438 1.6586937e-38
2.7055242 -1.1813744 -0.60422617 1.7139751e-38
2.7450585 -1.184566 -0.60358381 1.7323786e-38
2.7749741 -1.1850023 -0.60727078 1.6955008e-38
2.8064506 -1.1865687 -0.60414618 1.640291e-38
2.867039 -1.1724948 -0.60475481 1.5112174e-38
2.9006939 -1.1764903 -0.60412455 1.5204727e-38
2.9330835 -1.1851691 -0.6035459 1.5205083e-38
2.9766102 -1.1949325 -0.60432357 1.5480594e-38
1.8617789 -1.1255361 -0.63861865 1.5480248e-38
1.9065275 -1.1364214 -0.63511509 1.5480249e-38
1.9401683 -1.1403196 -0.63322818 1.5480249e-38
1.9788203 -1.139976 -0.63167483 1.5572442e-38
2.0177169 -1.143894 -0.62998784 1.5572443e-38
2.0583401 -1.1398685 -0.63425362 1.5572441e-38
2.0994899 -1.1411084 -0.63364547 1.5572441e-38
2.1423802 -1.1421658 -0.63536024 1.5664638e-38
2.179919 -1.1422129 -0.63383442 1.4835599e-38
2.2179787 -1.1412024 -0.62423128 1.4835233e-38
2.2606001 -1.1397513 -0.61739725 1.5941579e-38
2.2980907 -1.1384958 -0.61627114 1.704792e-38
2.3339682 -1.1415915 -0.61773354 1.7692565e-38
2.3877847 -1.1424243 -0.62249535 1.7509258e-38
2.4162841 -1.1396675 -0.62144786 1.667914e-38
2.4609685 -1.1407516 -0.61758733 1.6310713e-38
2.4998879 -1.1392208 -0.61275762 1.6402908e-38
2.5393021 -1.1380824 -0.60760349 1.6126684e-38
2.5808713 -1.1377159 -0.60656077 1.6126685e-38
2.6164193 -1.1412647 -0.60467255 1.6679134e-38
2.6587594 -1.141991 -0.60281193 1.7231592e-38
2.7038808 -1.143895 -0.60457706 1.6679137e-38
2.7462299 -1.1338392 -0.60339135 1.520509e-38
2.7671721 -1.143962 -0.60449284 1.5297283e-38
2.8087733 -1.1359072 -0.6023767 1.5112892e-38
2.862205 -1.1382458 -0.60359174 1.5020696e-38
2.8986332 -1.1399035 -0.60149634 1.5204725e-38
1.8258327 -1.0978781 -0.63871241 1.5479888e-38
1.860607 -1.1017323 -0.63760448 1.5480248e-38
1.8995638 -1.0991496 -0.63487613 1.5480246e-38
1.9396347 -1.0989192 -0.63276482 1.5572441e-38
1.9774288 -1.099563 -0.63263994 1.5572801e-38
2.014293 -1.0988247 -0.63536566 1.5664636e-38
2.0589492 -1.0978227 -0.63590878 1.6217809e-38
2.0995097 -1.1024518 -0.63469845 1.5757908e-38
2.1332324 -1.1007723 -0.63683504 1.5019986e-38
2.1844249 -1.1016483 -0.62966138 1.5112177e-38
2.2185068 -1.1020377 -0.62466896 1.5480958e-38
2.261961 -1.1005908 -0.62207597 1.6771693e-38
2.2951939 -1.1022127 -0.61836177 1.7694368e-38
2.3379788 -1.0987144 -0.61948389 1.6772415e-38
2.3857265 -1.1001097 -0.62157649 1.6218518e-38
2.4171538 -1.1008081 -0.6201216 1.6034485e-38
2.4601998 -1.0976263 -0.61556733 1.6218876e-38
2.4976296 -1.1014791 -0.60908908 1.6494743e-38
2.5445077 -1.0982226 -0.60650426 1.6770971e-38
2.5778606 -1.098508 -0.60545105 1.7047558e-38
2.6129706 -1.101539 -0.60364002 1.6679137e-38
2.66066 -1.096016 -0.60274082 1.5480954e-38
2.7044241 -1.1008384 -0.60432059 1.5480954e-38
2.7359836 -1.1043177 -0.60188448 1.5205089e-38
2.7667146 -1.0960945 -0.60403883 1.5112893e-38
2.8131618 -1.0955642 -0.60387588 1.5664624e-38
2.8585074 -1.1048517 -0.60322124 1.5757179e-38
2.8903522 -1.101661 -0.60397333 1.6125242e-38
2.9499278 -1.103687 -0.60076421 1.603448e-38
2.9786458 -1.119048 -0.60631067 1.5850816e-38
1.7512574 -1.0423788 -0.63898629 1.5296217e-38
1.7870857 -1.0604327 -0.63969749 1.5571727e-38
1.8237966 -1.0679252 -0.63893771 1.5479886e-38
1.8670406 -1.0585561 -0.63787413 1.538877e-38
1.9047133 -1.0633674 -0.6360141 1.5480605e-38
1.9388881 -1.0630848 -0.63545579 1.5480965e-38
1.9791487 -1.0589728 -0.63513684 1.5941222e-38
2.0164051 -1.0605273 -0.63496882 1.6494753e-38
2.0618415 -1.0649532 -0.6360929 1.5296933e-38
2.0971568 -1.0624821 -0.63647616 1.5204732e-38
2.1446521 -1.0543144 -0.6342175 1.5757903e-38
2.1742699 -1.0603509 -0.62922668 1.5941932e-38
2.2197266 -1.0590746 -0.6249848 1.5850454e-38
2.2623429 -1.060353 -0.62092859 1.6034126e-38
2.2986696 -1.0596627 -0.61975193 1.594229e-38
2.3359597 -1.0582163 -0.61889225 1.6126322e-38
2.3834412 -1.0602118 -0.6217038 1.6034485e-38
2.4203227 -1.0581111 -0.61958855 1.6310709e-38
2.4583933 -1.0603292 -0.61251009 1.6771689e-38
2.4985983 -1.0615088 -0.60654008 1.7047561e-38
2.5427563 -1.0626856 -0.60708326 1.6587304e-38
2.5807002 -1.063307 -0.60525376 1.5942294e-38
2.6172974 -1.0614392 -0.6031698 1.5757541e-38
2.6595724 -1.0596538 -0.60233086 1.5481316e-38
2.7016284 -1.0681642 -0.60310978 1.538876e-38
2.7256794 -1.0706214 -0.60311222 1.5205085e-38
2.7824872 -1.0732338 -0.60784668 1.6033755e-38
2.8095765 -1.0706214 -0.60321259 1.6217436e-38
2.8561316 -1.0728838 -0.60722917 1.6034488e-38
3.1407914 -1.0504167 -0.60087109 1.3361894e-38
3.2016759 -1.0656872 -0.60191649 1.308603e-38
1.7420955 -1.0341114 -0.63887858 1.520402e-38
1.7867062 -1.0225813 -0.63978404 1.5388051e-38
1.8354248 -1.0146412 -0.63806826 1.5480245e-38
1.8641599 -1.0187553 -0.6355114 1.5480605e-38
1.899506 -1.0214485 -0.63720173 1.5572441e-38
1.9434124 -1.0230374 -0.6371097 1.6218167e-38
1.9762495 -1.0258877 -0.6360938 1.6402917e-38
2.0171902 -1.0268705 -0.63791627 1.5757542e-38
2.0618851 -1.0187118 -0.63752002 1.5758261e-38
2.1026349 -1.0194132 -0.63664019 1.5574233e-38
2.1386254 -1.0191174 -0.63233429 1.5758261e-38
2.1761441 -1.0203497 -0.62744874 1.5941932e-38
2.2201877 -1.0211842 -0.62573475 1.5850093e-38
2.2635448 -1.0206211 -0.62460744 1.5850454e-38
2.2989216 -1.0202612 -0.62254232 1.6034125e-38
2.335279 -1.0194591 -0.6202929 1.6218152e-38
2.3878548 -1.0253748 -0.62197769 1.6586936e-38
2.4189227 -1.0226038 -0.62165183 1.6955723e-38
2.4581873 -1.0194095 -0.61365205 1.6402913e-38
2.4976289 -1.0172931 -0.60522342 1.5757904e-38
2.5415633 -1.0164191 -0.60609829 1.5665707e-38
2.5827699 -1.0184418 -0.60584837 1.5573151e-38
2.6164074 -1.0203965 -0.60399252 1.5664985e-38
2.6590874 -1.0187911 -0.60258752 1.5941571e-38
2.6992331 -1.0185682 -0.60591841 1.6125962e-38
2.7206159 -1.0255013 -0.60389322 1.6125961e-38
1.749997 -0.98307198 -0.63553494 1.5388049e-38
1.7708151 -0.98929852 -0.63948679 1.5479888e-38
1.8354334 -0.98330539 -0.63859051 1.6032699e-38
1.863011 -0.98007423 -0.63794959 1.6125612e-38
1.8984628 -0.98299831 -0.63837451 1.6494754e-38
1.9420276 -0.98137569 -0.63793343 1.6034491e-38
1.9737848 -0.9854157 -0.63777173 1.5480958e-38
2.012399 -0.98776674 -0.63907331 1.5481311e-38
2.0647063 -0.98043871 -0.63712817 1.5666066e-38
2.1052485 -0.97823095 -0.63316387 1.5574232e-38
2.1400037 -0.98021084 -0.63003296 1.5850095e-38
2.179616 -0.98042506 -0.6275149 1.594229e-38
2.2196212 -0.9804675 -0.62554866 1.5942288e-38
2.263653 -0.97935385 -0.62549967 1.6218514e-38
2.3008754 -0.98041803 -0.62397391 1.6587297e-38
2.3343518 -0.97653371 -0.62010318 1.686353e-38
2.3834958 -0.97574168 -0.61624813 1.6310716e-38
2.4196074 -0.97661948 -0.61560035 1.5942294e-38
2.4578183 -0.98303211 -0.6100024 1.5757542e-38
2.4989755 -0.98290241 -0.60837007 1.5573511e-38
2.5458307 -0.97970903 -0.61112839 1.5849734e-38
2.5807881 -0.97943974 -0.60896218 1.6125961e-38
2.6182981 -0.98322135 -0.60523981 1.6217797e-38
2.6628599 -0.98131299 -0.60408783 1.6217796e-38
2.6922011 -0.98009014 -0.60549998 1.6125959e-38
2.8547325 -0.98904669 -0.60178888 1.5113246e-38
1.8360099 -0.95200312 -0.63659298 1.6678783e-38
1.853127 -0.95348334 -0.63876808 1.6402917e-38
1.8974127 -0.94796491 -0.63918513 1.6126682e-38
1.945249 -0.94556844 -0.63836467 1.6310356e-38
1.9724773 -0.94162053 -0.63800901 1.6218159e-38
2.0242558 -0.93888634 -0.63866532 1.5942648e-38
2.0641546 -0.93399465 -0.63561541 1.5390198e-38
2.1009169 -0.93983591 -0.63176346 1.5666422e-38
2.1396949 -0.93828416 -0.62927651 1.5850453e-38
2.177809 -0.9393484 -0.62830466 1.6218515e-38
2.2163184 -0.93786502 -0.62720573 1.6679134e-38
2.2588589 -0.93865055 -0.6246798 1.6679139e-38
2.3024015 -0.94192314 -0.62595636 1.6311078e-38
2.335824 -0.94418114 -0.62033492 1.6034129e-38
2.3826363 -0.94024742 -0.61755592 1.5665705e-38
2.4149718 -0.94305432 -0.61182815 1.5665345e-38
2.4599452 -0.94015962 -0.61262727 1.6033766e-38
2.5011446 -0.9432236 -0.61291409 1.6126319e-38
2.5419631 -0.94607186 -0.61026502 1.6218155e-38
2.5805364 -0.94137204 -0.60549402 1.6126321e-38
2.6146955 -0.94688594 -0.6041615 1.6125962e-38
2.6589224 -0.95026839 -0.60177642 1.6125961e-38
2.8049531 -0.9473902 -0.60398871 1.3270064e-38
1.8392022 -0.91074467 -0.63986498 1.5850451e-38
1.8496623 -0.90803289 -0.63962299 1.5850095e-38
1.905109 -0.88709813 -0.63823318 1.9267457e-38
1.9445008 -0.91289872 -0.63896894 1.8247536e-38
1.9774247 -0.90815413 -0.63807654 1.6772406e-38
2.0280366 -0.90019679 -0.63601065 1.5666424e-38
2.0571818 -0.89960396 -0.63424379 1.5574587e-38
2.1006866 -0.89855862 -0.63358551 1.6126319e-38
2.1356905 -0.89877695 -0.63204551 1.658694e-38
2.1805787 -0.89981449 -0.63189393 1.6679499e-38
2.2185216 -0.90120965 -0.6276955 1.6218881e-38
2.2623889 -0.89836073 -0.62590879 1.5757901e-38
2.2959075 -0.90019715 -0.61961603 1.5757901e-38
2.3385687 -0.90123761 -0.61430311 1.5849735e-38
2.3816705 -0.89792776 -0.61239725 1.6126321e-38
2.419311 -0.89778858 -0.60902375 1.6126321e-38
2.4553964 -0.89589143 -0.6062541 1.6126322e-38
2.5028634 -0.89305526 -0.6064747 1.6126321e-38
2.5380192 -0.89580423 -0.60503393 1.6034485e-38
2.5773804 -0.89624429 -0.60438806 1.520545e-38
2.6128931 -0.89903814 -0.60251832 1.456008e-38
2.652884 -0.8966713 -0.60103947 1.3546293e-38
2.8511283 -0.89210665 -0.60124892 1.2993476e-38
1.8261788 -0.84920281 -0.63967526 1.7694361e-38
1.8532696 -0.85021788 -0.6385237 1.8897955e-38
1.8935367 -0.87574023 -0.63899618 1.8805041e-38
1.9463183 -0.85922408 -0.6386252 1.5850816e-38
1.9894328 -0.85027641 -0.63806266 1.5850088e-38
2.0201621 -0.85686022 -0.63652271 1.5850095e-38
2.0555668 -0.86353528 -0.63684154 1.6218516e-38
2.1015377 -0.86377448 -0.63588601 1.6679856e-38
2.138669 -0.8588993 -0.634655 1.6034488e-38
2.1763959 -0.86010057 -0.63140017 1.5666064e-38
2.2240546 -0.85712218 -0.62718463 1.5941931e-38
2.2604814 -0.86093473 -0.61850828 1.6125961e-38
2.2979925 -0.86022323 -0.61216533 1.6126321e-38
2.3425205 -0.86070406 -0.61128992 1.6126321e-38
2.3804753 -0.86095732 -0.61366069 1.6126321e-38
2.4203041 -0.86245173 -0.61114687 1.6125961e-38
2.4557159 -0.85972619 -0.60952032 1.6034125e-38
2.4999979 -0.86178493 -0.60882705 1.5942288e-38
2.5398762 -0.86780548 -0.60635662 1.5112893e-38
2.5720725 -0.87160516 -0.60766256 1.4099108e-38
2.6121664 -0.87617087 -0.60245049 1.3730319e-38
2.6565735 -0.85175198 -0.60248321 1.3086389e-38
2.8523836 -0.87682998 -0.60146034 1.2901643e-38
1.9546959 -0.80172986 -0.63704455 1.6494743e-38
1.9851493 -0.81847316 -0.63744873 1.6402908e-38
2.0139251 -0.82058209 -0.63636661 1.6310715e-38
2.0569854 -0.81911331 -0.63751423 1.5850098e-38
2.1004488 -0.82161528 -0.63754535 1.57579e-38
2.1379912 -0.82074744 -0.63428557 1.5941929e-38
2.1788924 -0.8195594 -0.62709761 1.6126321e-38
2.221576 -0.8210631 -0.61926806 1.6218156e-38
2.2583776 -0.82009757 -0.61324871 1.6126319e-38
2.3037527 -0.81909841 -0.6125893 1.6126319e-38
2.3436284 -0.8160308 -0.61170268 1.6034484e-38
2.3783216 -0.81855398 -0.61131531 1.6034124e-38
2.421001 -0.81840235 -0.61244315 1.6034125e-38
2.456048 -0.81998843 -0.60895759 1.5942288e-38
2.4920046 -0.82374418 -0.60461259 1.6033759e-38
2.5349338 -0.8037883 -0.60299772 1.4746263e-38
2.6158614 -0.81649804 -0.6028651 1.3361539e-38
2.6617343 -0.81910288 -0.60558665 1.3361897e-38
2.7481141 -0.80610013 -0.60254622 1.3086027e-38
2.7807643 -0.80161893 -0.60056192 1.2901274e-38
2.8160706 -0.81695718 -0.60415554 1.2626491e-38
1.9504471 -0.7787925 -0.63767058 1.6034487e-38
1.9799805 -0.77854025 -0.63699442 1.5850097e-38
2.0164857 -0.77894211 -0.63606739 1.57579e-38
2.0591979 -0.78138596 -0.63719153 1.5942288e-38
2.099525 -0.77842611 -0.63287872 1.6034484e-38
2.1388507 -0.77839857 -0.62621772 1.6126321e-38
2.1771669 -0.78064579 -0.62040138 1.6126679e-38
2.2170649 -0.7801497 -0.61576307 1.6126321e-38
2.2576928 -0.7810207 -0.61336493 1.6034482e-38
2.3000801 -0.7778036 -0.61425775 1.6034484e-38
2.3438263 -0.78332126 -0.61378521 1.5942648e-38
2.3817394 -0.78165144 -0.61520624 1.594229e-38
2.4173698 -0.78135556 -0.61084741 1.594229e-38
2.4533198 -0.78197908 -0.60734832 1.594229e-38
2.5014355 -0.7754162 -0.60467589 1.5849732e-38
2.5349293 -0.78315014 -0.60357732 1.4836304e-38
2.6124711 -0.7947976 -0.60293257 1.3637404e-38
2.6500924 -0.79412019 -0.60104162 1.3454448e-38
2.7439418 -0.77698016 -0.60048723 1.3177505e-38
2.7647181 -0.76720738 -0.60308796 1.3178581e-38
2.8046212 -0.78697008 -0.60174567 1.3085667e-38
2.9003897 -0.76584291 -0.60477519 1.3177504e-38
2.9299743 -0.76804507 -0.61170501 1.3177505e-38
2.973104 -0.76536584 -0.60427523 1.3268625e-38
1.8763912 -0.72425979 -0.63678348 1.5850093e-38
1.9009175 -0.73394203 -0.63868755 1.5849737e-38
1.9433744 -0.73617643 -0.63743508 1.5850094e-38
1.9812194 -0.73934066 -0.63648754 1.5850453e-38
2.0171287 -0.74143267 -0.63562328 1.594229e-38
2.0600865 -0.73805994 -0.63636345 1.594229e-38
2.0981395 -0.73897058 -0.62922221 1.6034485e-38
2.1386552 -0.74033934 -0.62145352 1.6126321e-38
2.1807225 -0.73956811 -0.61780351 1.6126679e-38
2.2182283 -0.74372339 -0.61673433 1.6126321e-38
2.2622175 -0.73807883 -0.61827737 1.6034485e-38
2.2978342 -0.74183416 -0.61411518 1.6034485e-38
2.3429341 -0.73829883 -0.61490971 1.6034482e-38
2.3769882 -0.73757213 -0.61050308 1.594229e-38
2.4187021 -0.73434174 -0.6056549 1.594229e-38
2.4555211 -0.7374773 -0.60402459 1.594229e-38
2.4997091 -0.74199951 -0.60363764 1.5849732e-38
2.549372 -0.73345804 -0.60138828 1.4375327e-38
2.5807273 -0.73331755 -0.60271889 1.3638844e-38
2.6110566 -0.73167914 -0.60245442 1.3453731e-38
2.6543953 -0.7318145 -0.60210234 1.3177507e-38
2.6983774 -0.7415697 -0.60142744 1.3177865e-38
2.7402709 -0.74085253 -0.6012125 1.308603e-38
2.7630925 -0.74530023 -0.60312939 1.3085671e-38
2.8091033 -0.7333045 -0.6023795 1.3085668e-38
2.858871 -0.74167496 -0.60385567 1.308567e-38
2.8975863 -0.74828255 -0.60428011 1.2993833e-38
2.9323685 -0.752087 -0.61157966 1.3085673e-38
3.1403151 -0.73345268 -0.60156351 1.3269704e-38
3.1827712 -0.73617482 -0.61016679 1.2902e-38
1.8671741 -0.69452268 -0.63898313 1.5942287e-38
1.9025478 -0.7006337 -0.63865364 1.5942288e-38
1.9418161 -0.70285147 -0.63824117 1.5850454e-38
1.9834007 -0.70149696 -0.63759089 1.5850453e-38
2.0135086 -0.69983315 -0.63638508 1.5850095e-38
2.0611155 -0.69963044 -0.63450867 1.6034125e-38
2.0969796 -0.70154285 -0.62754506 1.5942291e-38
2.1413312 -0.70081949 -0.62496305 1.6034484e-38
2.177048 -0.69989717 -0.62267292 1.6034485e-38
2.2231293 -0.69801676 -0.62244868 1.6034485e-38
2.2602847 -0.70168358 -0.6182602 1.6126322e-38
2.2998683 -0.70007658 -0.61434335 1.6034485e-38
2.3382175 -0.69809335 -0.61266106 1.6034126e-38
2.3795109 -0.70131743 -0.610367 1.594229e-38
2.4195566 -0.69995755 -0.6078285 1.594229e-38
2.4519508 -0.69942236 -0.60499513 1.594229e-38
2.5000699 -0.6968807 -0.60216951 1.5941927e-38
2.5394967 -0.69157624 -0.6038655 1.5941925e-38
2.5751891 -0.70530254 -0.6032697 1.465227e-38
2.6139643 -0.69433343 -0.60196084 1.3177151e-38
2.6621349 -0.69298327 -0.60241294 1.3545568e-38
2.7076433 -0.68833834 -0.60267365 1.3270058e-38
2.7423818 -0.69271719 -0.60287976 1.308567e-38
2.7654934 -0.69413465 -0.6029321 1.290164e-38
2.8081336 -0.70733696 -0.6028617 1.2901639e-38
3.0980206 -0.71277022 -0.60637403 1.2993481e-38
1.8661342 -0.66047794 -0.63879597 1.5941929e-38
1.9037495 -0.66131198 -0.63847077 1.5941931e-38
1.9381739 -0.65739721 -0.63837665 1.5850095e-38
1.9831262 -0.65684986 -0.63579595 1.5850094e-38
2.0174711 -0.65807068 -0.63296896 1.5850095e-38
2.0593934 -0.65861219 -0.6294741 1.5850094e-38
2.0963323 -0.65943617 -0.62473756 1.5850095e-38
2.1364534 -0.65932453 -0.62467062 1.5942291e-38
2.1812932 -0.65933299 -0.62611181 1.5942291e-38
2.2203984 -0.66236043 -0.62293983 1.6034126e-38
2.2600982 -0.65801626 -0.61603206 1.6034126e-38
2.2941983 -0.65825617 -0.6097886 1.6034485e-38
2.3356869 -0.65841353 -0.60818452 1.6034484e-38
2.3810344 -0.65974098 -0.60840261 1.5942648e-38
2.4176133 -0.66328782 -0.60600787 1.5850454e-38
2.4537578 -0.66375828 -0.60454732 1.5942288e-38
2.4976242 -0.66300249 -0.60364795 1.5941929e-38
2.5427082 -0.6597262 -0.60522228 1.5941928e-38
2.5830259 -0.66018808 -0.60709572 1.5942281e-38
2.6168654 -0.65932274 -0.6040163 1.4744104e-38
2.6638892 -0.6626572 -0.60381722 1.3453735e-38
2.7008433 -0.66342467 -0.60326362 1.3177865e-38
2.7412016 -0.6690734 -0.6038124 1.2993833e-38
2.7646303 -0.66812456 -0.60364294 1.2993833e-38
1.7905787 -0.62219667 -0.63887733 1.6034122e-38
1.822036 -0.61862999 -0.63902128 1.5850094e-38
1.8623013 -0.61965305 -0.63883311 1.5850095e-38
1.9038427 -0.614905 -0.63893116 1.5941931e-38
1.9471661 -0.61982429 -0.63834918 1.594229e-38
1.9872407 -0.62061793 -0.63413119 1.5850094e-38
2.0183921 -0.61977649 -0.63209182 1.5850095e-38
2.0587866 -0.62045527 -0.63009173 1.5850095e-38
2.0966053 -0.62070304 -0.62882423 1.5942291e-38
2.139333 -0.61950111 -0.62759405 1.5850455e-38
2.1797814 -0.61907387 -0.62453717 1.594229e-38
2.2185323 -0.61602324 -0.61956441 1.5942291e-38
2.2589738 -0.62384111 -0.61487037 1.5942648e-38
2.3012447 -0.62062085 -0.61031944 1.594229e-38
2.3393459 -0.61863041 -0.60921097 1.594229e-38
2.3817587 -0.62034577 -0.6084258 1.594229e-38
2.4175117 -0.61907399 -0.60586399 1.5850454e-38
2.4564419 -0.61750114 -0.60654122 1.5850094e-38
2.5009515 -0.61556685 -0.60722852 1.5942288e-38
2.5382199 -0.62049097 -0.60555851 1.6034124e-38
2.5788412 -0.61848205 -0.60522825 1.5942287e-38
2.6131465 -0.62387818 -0.60235095 1.5480584e-38
2.6579432 -0.61280113 -0.60227346 1.3361542e-38
2.6998243 -0.62246817 -0.60295594 1.3177507e-38
2.7206998 -0.63406676 -0.60493481 1.3177504e-38
2.8152871 -0.60827482 -0.60358942 1.2810523e-38
1.7517035 -0.58801687 -0.63991416 1.5942645e-38
1.8261642 -0.59702778 -0.63884753 1.5850455e-38
1.8623855 -0.59845388 -0.63854384 1.5758624e-38
1.9049225 -0.59007305 -0.63865906 1.5850097e-38
1.9451629 -0.5744077 -0.63403571 1.5850095e-38
1.9814606 -0.58175963 -0.63212156 1.5850454e-38
2.0234869 -0.58226258 -0.63350344 1.5850455e-38
2.0561388 -0.57917559 -0.63382655 1.5850814e-38
2.0975342 -0.58010459 -0.63279659 1.5850455e-38
2.1394384 -0.57970375 -0.62962317 1.5850454e-38
2.1843226 -0.58207458 -0.6240046 1.5850454e-38
2.217572 -0.58023006 -0.61833972 1.5850454e-38
2.2590888 -0.57911587 -0.61483401 1.5942648e-38
2.2965491 -0.58202988 -0.61185133 1.5942648e-38
2.3484304 -0.58564353 -0.61335498 1.594229e-38
2.3820179 -0.58022261 -0.61557323 1.5850453e-38
2.4182863 -0.58004975 -0.61381519 1.594229e-38
2.4578767 -0.57755053 -0.61159992 1.594229e-38
2.5001276 -0.57794923 -0.60831368 1.594229e-38
2.5386384 -0.57867086 -0.60498959 1.575826e-38
2.5794511 -0.58105701 -0.604756 1.5297284e-38
2.6117375 -0.58900517 -0.60255164 1.5481663e-38
2.65446 -0.59628934 -0.60123086 1.3546291e-38
1.8771977 -0.52022588 -0.63682157 1.5667139e-38
1.9100499 -0.53417325 -0.63658863 1.5758619e-38
1.9402859 -0.5422675 -0.63399506 1.5850454e-38
1.979273 -0.53823876 -0.63173062 1.5758261e-38
2.0230162 -0.53740692 -0.63384503 1.5850455e-38
2.0584323 -0.53963858 -0.63466871 1.5942291e-38
2.0979297 -0.54113364 -0.63341153 1.5850455e-38
2.1396356 -0.53910595 -0.62771612 1.5850454e-38
2.1807368 -0.53671718 -0.62072992 1.5850095e-38
2.2209396 -0.54115993 -0.61881816 1.5850095e-38
2.2615011 -0.54181182 -0.61354315 1.5850454e-38
2.2956333 -0.5395 -0.61041296 1.5850454e-38
2.3398669 -0.53230447 -0.61574423 1.5941929e-38
2.3812976 -0.53910637 -0.61717033 1.5850095e-38
2.4201322 -0.54280138 -0.61589468 1.5850095e-38
2.459085 -0.54139924 -0.61707383 1.5850095e-38
2.5050547 -0.54294842 -0.61373013 1.5758258e-38
2.5389347 -0.54104263 -0.60839516 1.5112529e-38
2.5751493 -0.54894364 -0.60539162 1.4282772e-38
2.6120915 -0.53305614 -0.60287571 1.4654065e-38
3.0278111 -0.53410643 -0.60602129 1.4006551e-38
1.7518655 -0.5050993 -0.63945699 1.5758619e-38
1.8361435 -0.48561692 -0.63752997 1.575826e-38
1.8626665 -0.49669254 -0.63820422 1.575826e-38
1.9009705 -0.49952209 -0.63551831 1.575826e-38
1.9378233 -0.49989834 -0.63441497 1.5758261e-38
1.9791515 -0.50002211 -0.6356191 1.575826e-38
2.0170643 -0.50080001 -0.6353181 1.5850454e-38
2.0585918 -0.50006843 -0.6361891 1.5850454e-38
2.0974381 -0.49777105 -0.62996829 1.5850094e-38
2.1391137 -0.49933603 -0.62471181 1.5850094e-38
2.1792819 -0.50190377 -0.62026405 1.5850094e-38
2.2189338 -0.49984187 -0.61689168 1.5758258e-38
2.2593908 -0.50152481 -0.61572874 1.5758619e-38
2.3023121 -0.49818033 -0.6184662 1.5758617e-38
2.3367386 -0.50241685 -0.61678612 1.5758617e-38
2.3790514 -0.50034839 -0.6161595 1.5850094e-38
2.4201515 -0.49854854 -0.61508942 1.5850094e-38
2.4599123 -0.49899027 -0.61390358 1.5758258e-38
2.4997413 -0.50587559 -0.60926139 1.566642e-38
2.538662 -0.50933623 -0.60554624 1.5021051e-38
2.5727322 -0.50329083 -0.60200751 1.3822876e-38
2.6129162 -0.5090782 -0.60176677 1.4006907e-38
2.6456575 -0.48667759 -0.60058361 1.4652275e-38
2.6929007 -0.49048799 -0.60033083 1.4468589e-38
2.7645957 -0.48344812 -0.6032756 1.3086386e-38
1.8274935 -0.45800462 -0.63854647 1.575826e-38
1.854787 -0.45892167 -0.63900709 1.575826e-38
1.9041088 -0.46133024 -0.63701749 1.5758261e-38
1.9400839 -0.46118942 -0.63663888 1.575826e-38
1.981609 -0.46074355 -0.63522661 1.575826e-38
2.0191762 -0.46104369 -0.63455188 1.5758261e-38
2.057981 -0.4578307 -0.6317063 1.575826e-38
2.0956385 -0.46004006 -0.62649488 1.5758619e-38
2.1384714 -0.46219319 -0.62516689 1.5758258e-38
2.1763325 -0.45922545 -0.62042654 1.5666064e-38
2.2189729 -0.45949063 -0.6189512 1.5758258e-38
2.26177 -0.45963132 -0.61916667 1.5666423e-38
2.3001027 -0.46300486 -0.6177839 1.5758258e-38
