# .PCD v0.7 - Point Cloud Data file format
VERSION 0.7
FIELDS x y z rgb
SIZE 4 4 4 4
TYPE F F F F
COUNT 1 1 1 1
WIDTH 1055
HEIGHT 1
VIEWPOINT 0 0 0 1 0 0 0
POINTS 1055
DATA ascii
3.9760294 1.2557142 0.81765574 1.9538276e-38
4.0260935 1.2588376 0.80924761 1.9538635e-38
4.0449023 1.2753149 0.81533647 1.9538637e-38
3.9478991 1.2107848 0.73575491 1.8801072e-38
4.0253744 1.2865677 0.81399065 1.9446081e-38
4.0647326 1.3028286 0.80978709 1.9538635e-38
4.0852995 1.3058522 0.81357521 1.9538994e-38
4.0063195 1.311034 0.8067624 1.9261688e-38
4.0671172 1.3407958 0.81977552 1.9446079e-38
4.0958452 1.2960138 0.79779696 1.9262048e-38
4.1324348 1.3531046 0.82590395 1.9538276e-38
4.0672865 1.3758953 0.82219386 1.926169e-38
4.1051192 1.3584651 0.80164385 1.9261688e-38
4.1330562 1.3856251 0.81659925 1.9354244e-38
4.0675883 1.4090502 0.8165763 1.8892548e-38
4.1143742 1.4168643 0.81636536 1.9076938e-38
4.1526899 1.3215412 0.78483534 1.8892906e-38
4.1810098 1.4337828 0.81596863 1.9353881e-38
4.0671229 1.4655329 0.83605379 1.3362622e-38
4.1151199 1.4597467 0.81638396 1.7879475e-38
4.155232 1.3503296 0.7833336 1.843157e-38
4.165935 1.4616787 0.81668049 1.8708157e-38
4.2234788 1.4677867 0.81279105 1.8985459e-38
4.0681534 1.5054018 0.82070547 7.9234278e-39
4.1152906 1.5016237 0.81635791 7.7379659e-39
4.1620102 1.3763199 0.77928257 1.2255909e-38
4.1720486 1.4940168 0.81705076 1.474483e-38
4.215941 1.5072141 0.82324529 1.714227e-38
4.2659073 1.5182023 0.82954836 1.8616322e-38
4.0203009 1.540375 0.81768698 7.6468367e-39
4.0679221 1.5454476 0.81961924 7.8319566e-39
4.1163845 1.5221559 0.80854386 7.7390407e-39
4.1407504 1.507026 0.80719185 7.7393966e-39
4.1813493 1.5139253 0.80933088 8.0159821e-39
4.2181067 1.5411253 0.8213346 8.38405e-39
4.2622213 1.5340923 0.8270396 1.5484906e-38
3.9763885 1.5674508 0.81792915 7.6475527e-39
4.0254221 1.5770999 0.81855917 7.7397512e-39
4.0679502 1.5757436 0.82292092 7.3698868e-39
4.1119223 1.5685794 0.810184 7.2776968e-39
4.1320405 1.5806134 0.81688851 7.7397582e-39
4.1775937 1.5716381 0.81507397 7.739398e-39
4.2295842 1.5714165 0.82214421 8.1085337e-39
4.2612371 1.5662798 0.82038993 8.385115e-39
4.2889194 1.5855092 0.82307428 8.3854779e-39
4.069953 1.6077336 0.81143564 7.5546452e-39
4.1138654 1.6076136 0.81681925 7.8319496e-39
4.1465101 1.5502238 0.79846191 7.4624454e-39
4.1667528 1.6254472 0.81764728 7.6471968e-39
4.2267771 1.6190691 0.81577855 7.5539222e-39
4.1585732 1.653728 0.82614595 7.4617223e-39
4.2250843 1.4782286 0.76809454 7.8323083e-39
4.2165346 1.6450989 0.82099247 7.8323069e-39
4.2633986 1.6703987 0.8266058 7.831951e-39
4.3696194 -0.16132098 0.86886376 2.1015196e-38
4.4201007 -0.16316511 0.84675431 1.9631149e-38
4.4835262 -0.16447884 0.87441707 2.1476534e-38
4.3104701 -0.14353068 0.86194694 2.1292509e-38
4.3440123 -0.14616552 0.86214095 2.0923006e-38
4.3748708 -0.14203903 0.86427367 2.0923366e-38
4.4241662 -0.14751296 0.85415637 2.101556e-38
4.4697709 -0.13367809 0.86503929 2.1107392e-38
4.4855065 -0.13366127 0.86381 2.1015195e-38
4.5395203 -0.13317284 0.86155999 2.0738964e-38
4.3985772 -0.087692983 0.86012226 1.4201768e-38
4.4377065 -0.13315365 0.82666928 1.687255e-38
4.4721279 -0.11294329 0.85712105 1.9635521e-38
4.48558 -0.10792574 0.859828 1.9451484e-38
4.5393672 -0.11506634 0.85416377 2.0469921e-38
4.5736427 -0.11712536 0.86151743 2.0102577e-38
4.3145328 -0.047857001 0.86306441 6.2603275e-39
4.368722 -0.15862705 0.78046536 5.7114795e-39
4.3732758 -0.062097158 0.86029243 1.0603955e-38
4.4249954 -0.073500857 0.85596693 9.5908987e-39
4.4779344 -0.079835676 0.87352973 1.4937923e-38
4.4817834 -0.079706162 0.87444443 1.4940071e-38
4.2606926 -0.012879021 0.85162652 1.806712e-38
4.3134813 -0.021915967 0.85949343 1.3360117e-38
4.3694816 -0.06803067 0.8295359 1.0133287e-38
4.2616658 0.022175213 0.86145365 2.1201033e-38
4.3065734 0.0013116697 0.83840072 1.9264206e-38
4.3383517 0.0049390751 0.86489403 2.0371989e-38
4.2154484 0.063301884 0.85535109 2.1109201e-38
4.2617011 0.059443854 0.86215466 2.1201035e-38
4.2876344 0.042578552 0.82724899 2.0924448e-38
4.1116867 0.11101466 0.85347933 2.129323e-38
4.1579661 0.10801345 0.85601431 2.129323e-38
4.1649475 0.11306589 0.85106689 2.1201035e-38
4.2168226 0.085110441 0.85360044 2.1108841e-38
4.2604828 0.084085897 0.85095662 2.1201035e-38
4.2903929 0.083518781 0.8511976 2.1201035e-38
4.1118412 0.14318456 0.86112601 2.1293232e-38
4.1342535 0.14959 0.8445611 2.1109199e-38
4.1602588 0.1473763 0.82498413 2.1016645e-38
4.06393 0.18500406 0.86157334 2.1385786e-38
4.1120572 0.17338631 0.85512501 2.1293232e-38
4.1304979 0.19530626 0.83326101 2.1109199e-38
4.1745625 0.073991105 0.67303824 1.9909937e-38
4.0642486 0.21726704 0.86207056 2.1477622e-38
4.092144 0.20765844 0.83932608 2.1201036e-38
4.1259599 0.24648334 0.81387329 2.0924809e-38
3.998786 0.25066 0.84043652 2.1293232e-38
4.020052 0.26065627 0.8550815 2.1477263e-38
4.0598822 0.25292587 0.86091214 2.1477622e-38
4.0833926 0.26312074 0.83875835 2.1385426e-38
3.9310303 0.31276771 0.8553201 2.1569819e-38
3.9812715 0.29658115 0.8543275 2.1569459e-38
4.0195131 0.29559284 0.84869248 2.1569459e-38
4.0425615 0.29934424 0.856507 2.1569459e-38
4.0867429 0.29700124 0.8475669 2.1477623e-38
3.9190702 0.35679215 0.86178339 2.1754207e-38
3.9393723 0.33818084 0.85045069 2.1662013e-38
3.9749739 0.3391732 0.86151439 2.1662014e-38
4.0211458 0.32707724 0.84572977 2.1569817e-38
4.0421152 0.32715994 0.8530218 2.1569817e-38
4.0872059 0.32622632 0.84783959 2.1477982e-38
3.8784528 0.39007917 0.85980463 2.1846404e-38
3.8914859 0.38753328 0.85764015 2.1846045e-38
3.9374053 0.36905387 0.85167521 2.1662373e-38
3.8388278 0.42088121 0.85059845 2.1938241e-38
3.9019461 0.37833664 0.82591122 2.156982e-38
3.8897254 0.41501442 0.8573032 2.1846406e-38
3.9281085 0.40892547 0.8552314 2.1846406e-38
3.8818493 0.43844596 0.83995128 2.1846404e-38
3.8878663 0.45131552 0.86263138 2.19386e-38
3.7571125 0.50946581 0.87494034 2.2215547e-38
3.7931614 0.51036364 0.86755425 2.2123351e-38
3.8253207 0.50567698 0.86591846 2.2122992e-38
3.8576186 0.48611879 0.84912455 2.2030795e-38
3.8875391 0.48858285 0.86644131 2.2031156e-38
3.7570202 0.54617667 0.86521542 2.2215547e-38
3.7874999 0.53932589 0.85488623 2.2123351e-38
3.8203843 0.52936876 0.85493988 2.2123351e-38
3.8515172 0.51807827 0.85397923 2.2031156e-38
3.8833561 0.52879226 0.87487119 2.2123351e-38
3.7169774 0.58842146 0.86049026 2.2215547e-38
3.7530484 0.57140833 0.85730338 2.2215547e-38
3.7714331 0.55856508 0.85020393 2.2123351e-38
3.8044596 0.56111664 0.85662895 2.2215547e-38
3.677644 0.63830942 0.85624188 2.2215908e-38
3.7158203 0.61821479 0.86462188 2.2307384e-38
3.7331581 0.58866751 0.84737509 2.2122992e-38
3.7618122 0.60978693 0.8560673 2.2215187e-38
3.6387722 0.66886657 0.84969944 2.2399578e-38
3.6741271 0.65462703 0.84999806 2.2307384e-38
3.7012277 0.64652097 0.85338742 2.2215547e-38
3.7275338 0.62941509 0.85305709 2.2123353e-38
3.598707 0.71477139 0.86674201 2.2307384e-38
3.6157293 0.70916671 0.86115795 2.2307384e-38
3.6570303 0.68881291 0.85254949 2.2307384e-38
3.6914487 0.6775251 0.85806519 2.2307382e-38
3.5593886 0.75200486 0.85421419 2.221555e-38
3.5764349 0.74794126 0.85053462 2.2215548e-38
3.6097169 0.73082566 0.85636461 2.2215188e-38
3.7134531 0.57242888 0.78786886 2.1570179e-38
3.565815 0.80276406 0.80251545 2.19386e-38
3.5719299 0.77924514 0.85198867 2.2215547e-38
3.6073914 0.76875722 0.86921787 2.2307742e-38
3.6529682 0.76056862 0.86920524 2.2307384e-38
3.5590279 0.81955868 0.85643166 2.2215188e-38
3.5713923 0.81816345 0.85347253 2.2122992e-38
3.6077914 0.82967478 0.86313814 2.2214829e-38
3.5590839 0.84649843 0.85640728 2.2215185e-38
3.5785484 0.84229982 0.85109288 2.2122991e-38
3.6112897 0.85631841 0.85589224 2.2214825e-38
3.598731 0.88376737 0.86257398 2.0462042e-38
3.6159704 0.88261789 0.85599595 2.0462039e-38
3.6452162 0.90801901 0.86135256 2.0553868e-38
3.638557 0.92679495 0.85770321 2.0553507e-38
3.6614609 0.92819786 0.84949881 2.0461312e-38
3.6879699 0.93579823 0.85306752 2.0461312e-38
3.7279782 0.95185941 0.87606657 2.0553149e-38
3.6779671 0.97165364 0.86772716 2.0368759e-38
3.7154543 0.97961479 0.86383492 2.0368756e-38
3.7300808 0.95940238 0.85606629 2.0276562e-38
3.717555 1.0297055 0.86155516 2.0184366e-38
3.7481625 1.0232964 0.86151731 2.0184725e-38
3.7675467 0.99877024 0.85197449 2.0092529e-38
3.7176909 1.0534543 0.85816085 2.0092171e-38
3.7489703 1.0626034 0.86023843 2.0092169e-38
3.772866 1.0397204 0.84758532 1.9999975e-38
3.802768 1.0743464 0.84317714 2.0091812e-38
3.7581351 1.0931872 0.86150849 1.9908138e-38
3.7870917 1.0947291 0.85543358 1.9999613e-38
3.8130076 1.0923136 0.84895045 1.9907778e-38
3.8632352 1.0953051 0.8435632 1.9815584e-38
3.8841865 1.1162349 0.84450746 1.9999975e-38
3.7980824 1.1233684 0.85895693 1.9999972e-38
3.8266292 1.1172067 0.85694832 1.9907418e-38
3.8554223 1.1279117 0.85314518 1.9815582e-38
3.8963408 1.1319425 0.84449935 1.9815584e-38
3.8384149 1.1606429 0.86479729 1.9815941e-38
3.892303 1.1675124 0.85537493 1.9815223e-38
3.9322324 1.1910998 0.86528486 1.9815223e-38
3.8991227 1.2009374 0.85346985 1.9723389e-38
3.9402049 1.1948893 0.85211456 1.9723028e-38
3.9746699 1.2321792 0.87655807 1.9723028e-38
3.9840157 1.243696 0.85057771 1.9538276e-38
4.0203571 1.2760445 0.87043017 1.9538637e-38
4.0409255 1.2749219 0.86234629 1.9630115e-38
4.0226936 1.2978269 0.85610664 1.944644e-38
4.0407915 1.3021042 0.85964942 1.9538276e-38
4.0342212 1.2921066 0.83494526 1.9353885e-38
4.0664616 1.3462211 0.8600834 1.9446081e-38
4.0855622 1.3463615 0.86181384 1.9446081e-38
4.0675011 1.3738395 0.85940945 1.9261691e-38
4.0968561 1.3468068 0.84164041 1.9169495e-38
4.133533 1.3863395 0.85152692 1.9353885e-38
4.0668173 1.4220227 0.8595531 1.8615963e-38
4.1146107 1.417807 0.86275214 1.8984744e-38
4.1298065 1.3975075 0.83361155 1.8892907e-38
4.1681213 1.4339547 0.8742364 1.8893626e-38
3.9861224 1.4410251 0.87338787 1.6504109e-38
4.021944 1.4557561 0.86244351 1.2256629e-38
4.0672107 1.467096 0.86288619 1.2623613e-38
4.1144252 1.4617202 0.86342216 1.806423e-38
4.1434488 1.4274886 0.82881749 1.843157e-38
4.1661305 1.4618841 0.85574263 1.8616322e-38
4.2314291 1.4675565 0.84616131 1.9077658e-38
3.9760456 1.5172584 0.87863106 7.9238033e-39
4.0228748 1.4946654 0.86296445 7.7401211e-39
4.0680137 1.5032872 0.86498833 7.924511e-39
4.1130662 1.5017148 0.86427307 8.1053079e-39
4.1546679 1.463953 0.83362317 1.2440663e-38
4.1667118 1.4953676 0.84921652 1.5021059e-38
4.2171173 1.5065905 0.85643274 1.7971314e-38
4.2630153 1.5179968 0.86227447 1.8983302e-38
3.9758279 1.547356 0.84878081 7.4631741e-39
4.0220146 1.5434753 0.85946763 7.461735e-39
4.0680633 1.5391408 0.86218739 7.7394022e-39
4.1155963 1.5319444 0.85599941 7.7394022e-39
4.1380563 1.5243747 0.84125286 7.8312363e-39
4.1633267 1.5308105 0.84696758 8.1996559e-39
4.2198648 1.5424178 0.85825449 8.9365063e-39
4.2664008 1.5377842 0.85539806 1.4010146e-38
4.288105 1.5520951 0.84192556 1.5576377e-38
3.9775159 1.5689329 0.85538149 7.6468465e-39
4.0230126 1.5788509 0.86012399 7.5550082e-39
4.0677238 1.5770888 0.86124361 7.3698925e-39
4.110661 1.5731037 0.8585456 7.5542865e-39
4.1466351 1.5578883 0.84554458 7.8315979e-39
4.1753139 1.5702287 0.85600126 7.8308776e-39
4.2280359 1.5663823 0.86162347 8.2000119e-39
4.268959 1.5666757 0.86236656 8.4769519e-39
4.2880898 1.568414 0.84193766 7.3688317e-39
4.0196667 1.6118965 0.87310672 7.280959e-39
4.0686059 1.6036208 0.86470819 7.6471996e-39
4.112155 1.6051209 0.86281753 7.647201e-39
4.1332827 1.5619216 0.81281006 7.5546396e-39
4.1664758 1.6216333 0.85394603 7.6468381e-39
4.0849867 1.6478765 0.87807292 7.0969055e-39
4.1846476 1.6413826 0.86061025 7.8319524e-39
4.2187619 1.6483539 0.86065489 7.8315867e-39
4.3416767 -0.16881111 0.91136044 2.3047083e-38
4.3690243 -0.1614622 0.88551545 2.0739341e-38
4.4546666 -0.16646297 0.90648097 2.0924086e-38
4.4835477 -0.16444151 0.90834743 2.0924088e-38
4.5413027 -0.16626577 0.91137683 2.0922647e-38
4.3077769 -0.14371087 0.89386141 2.2586464e-38
4.3243175 -0.083350614 0.85531545 2.1570159e-38
4.3718314 -0.14299956 0.89900798 2.2123336e-38
4.4208584 -0.13197462 0.89369321 2.2308813e-38
4.4679132 -0.13298106 0.89950019 2.1940039e-38
4.4851847 -0.13331173 0.89923394 2.1847123e-38
4.5387683 -0.13890782 0.89268577 2.1108116e-38
4.596807 -0.14759809 0.90065908 2.1107394e-38
4.3984189 -0.092937872 0.90032595 1.806566e-38
4.4069362 -0.084928721 0.87205327 2.1386854e-38
4.4683728 -0.10220973 0.89806521 2.2861981e-38
4.482944 -0.10214503 0.89892602 2.2861623e-38
4.5386238 -0.11511144 0.88543183 2.0830815e-38
4.3146729 -0.049064305 0.90033436 9.3027665e-39
4.3163633 -0.024102882 0.85169637 8.3800955e-39
4.3714123 -0.069343075 0.90110219 1.216515e-38
4.419795 -0.072497994 0.90224749 1.3640273e-38
4.4767885 -0.07976006 0.89337122 2.1666304e-38
4.4810357 -0.079729728 0.89431375 2.1573748e-38
4.262723 -0.012801797 0.91226089 2.1845676e-38
4.3145642 -0.020887548 0.89895219 2.073428e-38
4.3314748 -0.0072854767 0.87723017 2.0550254e-38
4.2620487 0.021789836 0.90248221 2.1200676e-38
4.29984 0.012838 0.8863883 2.1108478e-38
4.3250451 0.022446364 0.86411089 2.0831891e-38
4.2626185 0.022090795 0.86050582 2.0832611e-38
4.2621255 0.059817366 0.90117067 2.129323e-38
4.2768517 0.058858659 0.86850709 2.0924449e-38
4.1583476 0.11109786 0.89069396 2.1385067e-38
4.1719604 0.11129743 0.89037675 2.1385067e-38
4.2153478 0.096895292 0.89741784 2.1385067e-38
4.2606025 0.084274277 0.90370744 2.1293232e-38
4.2422786 0.057034351 0.825912 2.0463833e-38
4.1129875 0.14694057 0.88572001 2.1385427e-38
4.1524682 0.13667697 0.88740808 2.1293232e-38
4.1742945 0.12809643 0.8839584 2.1201036e-38
4.2109284 0.13050364 0.91702479 2.1477264e-38
4.0612297 0.18608309 0.8849116 2.1385786e-38
4.1141243 0.17580393 0.89533246 2.1385427e-38
4.1361594 0.17909965 0.89879441 2.1385788e-38
4.1688604 0.16026592 0.90880477 2.1477263e-38
4.064333 0.22103377 0.89654094 2.1477622e-38
4.1090884 0.19334976 0.88620996 2.129323e-38
3.9837952 0.26967597 0.90856838 2.1477623e-38
4.029757 0.25619605 0.88884234 2.1477623e-38
4.0619707 0.25142589 0.90151113 2.1569459e-38
4.0934262 0.22737801 0.88644624 2.1385067e-38
3.9792166 0.30032209 0.89674819 2.1569817e-38
4.0209064 0.28688991 0.89127243 2.1569817e-38
4.0408554 0.30040646 0.90597463 2.1570177e-38
3.9190836 0.35343891 0.89136833 2.1846403e-38
3.9316027 0.34569418 0.89242125 2.1754209e-38
3.9814818 0.32306308 0.89175111 2.1570177e-38
4.0194373 0.29553318 0.89050478 2.1477622e-38
4.0407 0.32226664 0.91448438 2.1478342e-38
3.8783591 0.39216644 0.89411247 2.1846406e-38
3.8922291 0.38674283 0.88954842 2.1846045e-38
3.9315784 0.36813504 0.89574623 2.1662373e-38
3.9769759 0.36181864 0.90898311 2.1846044e-38
3.8782816 0.41992891 0.90281659 2.19386e-38
3.8911498 0.40709665 0.89453107 2.1846406e-38
3.9289067 0.39495903 0.90784281 2.1846045e-38
3.7975101 0.4737618 0.90124387 2.2122992e-38
3.8364699 0.47411561 0.90562022 2.2122992e-38
3.8537483 0.46801743 0.90627301 2.2031156e-38
3.8904111 0.44261155 0.89546543 2.19386e-38
3.7570474 0.50721759 0.9024511 2.2123353e-38
3.7863042 0.50252831 0.89737338 2.2122992e-38
3.8126912 0.49033871 0.89145893 2.2122632e-38
3.8547323 0.48301217 0.88037735 2.193896e-38
3.8946073 0.45917201 0.87914097 2.1938601e-38
3.7571745 0.54141748 0.90493804 2.2215547e-38
3.7784317 0.54069906 0.89338213 2.2215187e-38
3.8117149 0.52550489 0.88662386 2.2123351e-38
3.8697689 0.47891971 0.85943592 2.1938601e-38
3.6772034 0.59659719 0.88756919 2.2307742e-38
3.7157619 0.58805108 0.89601082 2.2307742e-38
3.753649 0.58114558 0.89988881 2.2215548e-38
3.7671671 0.57380998 0.88943106 2.2123353e-38
3.8120313 0.56230575 0.90039623 2.2215907e-38
3.6774879 0.62858528 0.8941077 2.2307742e-38
3.7060273 0.61859709 0.89739615 2.2307742e-38
3.7320209 0.61498076 0.87952679 2.2123351e-38
3.7690213 0.60046571 0.89724094 2.221591e-38
3.638572 0.67201936 0.9095729 2.239994e-38
3.6700349 0.66572052 0.9028725 2.2399579e-38
3.6978397 0.65504313 0.88859099 2.2307384e-38
3.7262328 0.66020107 0.89662921 2.2307744e-38
3.5984414 0.7130816 0.90308267 2.2307385e-38
3.6214759 0.70219642 0.8952446 2.2307384e-38
3.6604576 0.69406265 0.89382583 2.2307384e-38
3.6871035 0.68692696 0.89345145 2.2307744e-38
3.7252681 0.69267398 0.89695907 2.2399579e-38
3.5599461 0.7359612 0.8968482 2.2399579e-38
3.5750103 0.73822898 0.90017128 2.2399579e-38
3.6171994 0.72469538 0.88964397 2.2215188e-38
3.651583 0.74372232 0.88932121 2.2307384e-38
3.5363657 0.79315102 0.9051187 2.2307384e-38
3.5750561 0.77162015 0.89346182 2.2307384e-38
3.6107099 0.76366752 0.89604223 2.2307384e-38
3.6545072 0.76021636 0.88300014 2.2399579e-38
3.537796 0.81547332 0.90339231 2.2307382e-38
3.5731153 0.81129336 0.89234048 2.2215188e-38
3.6170576 0.80725956 0.90154511 2.249142e-38
3.5591867 0.85566556 0.90018177 2.2122274e-38
3.5740976 0.84376609 0.89419848 2.2030438e-38
3.607187 0.86942714 0.89555246 2.2398499e-38
3.6413267 0.87901795 0.88876605 2.248962e-38
3.5926659 0.8889783 0.90570259 2.0646067e-38
3.6173327 0.87846857 0.89097285 2.0553872e-38
3.6457317 0.90459877 0.88617635 2.0553507e-38
3.6813114 0.91644633 0.89791006 2.0737537e-38
3.6384141 0.92094511 0.90701151 2.0645703e-38
3.6701608 0.92166871 0.88744211 2.0461672e-38
3.695246 0.94062638 0.89396966 2.0553507e-38
3.7219291 0.95444649 0.90135294 2.0553507e-38
3.6779616 0.97187787 0.89450651 2.0461312e-38
3.7097738 0.97715145 0.89526111 2.0369116e-38
3.7281091 0.97851443 0.89610726 2.0369116e-38
3.7621408 0.98338652 0.91714311 2.0461315e-38
3.7175553 1.0189238 0.90311277 2.027656e-38
3.747236 1.0192947 0.89759028 2.027656e-38
3.7709985 1.0135351 0.88645053 2.0184365e-38
3.7178478 1.0529864 0.89293736 2.0092531e-38
3.7567525 1.0639913 0.90188706 2.0184006e-38
3.7695758 1.0498582 0.88873178 2.0092169e-38
3.758116 1.0930214 0.89552039 1.9908137e-38
3.7913725 1.0919349 0.88689113 1.9907779e-38
3.8078041 1.102246 0.892102 1.9907779e-38
3.8432446 1.1176751 0.89689654 1.9908138e-38
3.7987602 1.1202286 0.88932532 1.9907779e-38
3.8255847 1.100762 0.88518178 1.9907419e-38
3.8554614 1.1255387 0.89316124 1.9815584e-38
3.8971026 1.1188812 0.89561927 1.9815584e-38
3.8900464 1.1707355 0.90220672 1.9907419e-38
3.9328485 1.1912917 0.89388496 1.9815581e-38
4.1525741 0.062730633 0.46341527 1.6220313e-38
3.9337401 1.196354 0.89580429 1.9814865e-38
3.9740014 1.231735 0.9005385 1.9723028e-38
3.9826305 1.2471688 0.89994508 1.9630832e-38
4.0210662 1.2704529 0.9044345 1.9630831e-38
4.0415034 1.2735661 0.90152472 1.9630831e-38
4.024848 1.2951266 0.90117753 1.9538635e-38
4.0632353 1.3066338 0.90355194 1.9538635e-38
4.0670285 1.3373744 0.89832264 1.9446082e-38
4.0853753 1.3405428 0.90222287 1.9538275e-38
4.0677085 1.3764012 0.90042609 1.9261692e-38
4.1123266 1.352827 0.88960463 1.926169e-38
4.1276102 1.384796 0.90500134 1.9353885e-38
4.0218568 1.4196919 0.91933858 1.8891832e-38
4.0675206 1.4252642 0.90929663 1.8799994e-38
4.1151485 1.4138633 0.90250951 1.907694e-38
4.1496105 1.3929553 0.88931799 1.8985104e-38
4.1644821 1.4342544 0.89802796 1.8985103e-38
3.9861364 1.4410311 0.88858551 1.6874324e-38
4.0232277 1.4489812 0.89630622 1.6594143e-38
4.0672932 1.4644798 0.89823836 1.4836305e-38
4.122251 1.4421834 0.89270449 1.8156784e-38
4.1648383 1.4217789 0.88000417 1.8523764e-38
4.1828685 1.4376116 0.89197665 1.8615963e-38
4.2149568 1.4678063 0.91457456 1.8708158e-38
4.0390735 1.5051291 0.88294351 7.6497262e-39
4.0679364 1.5014727 0.89357132 7.8326769e-39
4.1247578 1.4789166 0.89139432 8.932905e-39
4.1505842 1.471714 0.88752586 1.3085668e-38
4.1724534 1.4910952 0.89762557 1.7879475e-38
4.2188768 1.5031265 0.89848471 1.8248258e-38
4.0243564 1.5363601 0.90159863 7.9241522e-39
4.0678616 1.5429994 0.89509511 7.8312377e-39
4.1201768 1.5213745 0.89405191 7.6475653e-39
4.1460423 1.5172726 0.89107406 7.8319552e-39
4.1731768 1.5360982 0.89605755 8.1996573e-39
4.2202487 1.5418991 0.88752997 1.0136126e-38
4.2867079 1.5413191 0.89275301 1.8339373e-38
4.0317454 1.5865041 0.88654375 7.647208e-39
4.0679207 1.5786639 0.89242476 7.2784199e-39
4.1127572 1.5730513 0.89867193 7.4628098e-39
4.1600904 1.5375932 0.88215947 7.9234348e-39
4.1773882 1.5742427 0.90234655 7.7394008e-39
4.2352095 1.5711172 0.89617038 8.2922103e-39
4.0340672 1.6125011 0.88357139 7.9201838e-39
4.0692825 1.6077223 0.88822448 7.6461248e-39
4.1149035 1.606337 0.89828378 7.555011e-39
4.1635747 1.5507209 0.8733328 7.4624496e-39
4.1672468 1.6270789 0.90637434 7.5550096e-39
4.1175399 1.6502833 0.89414126 7.0054554e-39
4.1836729 1.6423391 0.9013108 7.6468437e-39
4.2221503 1.6618199 0.90315801 7.6464807e-39
4.2659049 1.6712341 0.89453888 7.6471968e-39
4.3202977 1.7008259 0.90491772 7.3720589e-39
4.9391279 -0.34553996 0.331056 1.0414859e-38
4.4781985 -0.18127519 0.9418484 2.2954523e-38
4.4830532 -0.17292845 0.92513669 2.2031513e-38
4.5386596 -0.16617465 0.94548845 2.2954527e-38
4.3106394 -0.14679928 0.92674601 8.1845766e-39
4.3456392 -0.14586467 0.93668056 7.3530348e-39
4.3771262 -0.14342874 0.93879569 9.6632926e-39
4.42133 -0.13716446 0.93993664 1.5751061e-38
4.4673533 -0.13789618 0.9295854 1.8060621e-38
4.4852567 -0.13219985 0.94218999 1.861487e-38
4.5388312 -0.13611895 0.94983333 1.8707789e-38
4.6020889 -0.13319485 0.94954783 2.2767249e-38
4.3985209 -0.087319873 0.93904215 1.5762219e-38
4.4058008 -0.10913003 0.89749599 1.576186e-38
4.4658175 -0.10396097 0.93498474 1.612777e-38
4.4829373 -0.1054403 0.94112694 1.6312159e-38
4.5368447 -0.097721852 0.9485687 1.5945173e-38
4.260704 -0.045212567 0.94453877 9.0254299e-39
4.3145728 -0.052473541 0.94070625 9.3945922e-39
4.3584762 -0.074242495 0.91233486 9.7641006e-39
4.3707814 -0.073109969 0.94308728 1.3271492e-38
4.4198747 -0.073128283 0.93664783 1.3735357e-38
4.4705162 -0.079706743 0.93145895 1.3548461e-38
4.481442 -0.079812959 0.93133521 1.3548817e-38
4.2617784 -0.013860883 0.94393051 2.1752398e-38
4.315506 -0.023639033 0.93595958 2.0363697e-38
4.3726406 -0.042030085 0.91378343 2.0364779e-38
3.5898588 -0.34241888 -0.41098669 4.9749655e-39
4.2377701 0.033221867 0.92710149 2.1109561e-38
4.2618403 0.019991133 0.93684512 2.1200676e-38
4.3217778 -0.0045418013 0.91370451 2.0924448e-38
4.4242258 -0.039758954 0.87310505 2.0463111e-38
4.2380781 0.050034985 0.92711985 2.1293232e-38
4.2618761 0.059689332 0.93671173 2.1293591e-38
4.3094339 0.03553446 0.91281772 2.1109198e-38
4.1635532 0.11295567 0.95386463 2.1477983e-38
4.2186456 0.10107011 0.93430543 2.1385069e-38
4.2616563 0.094946854 0.93757761 2.1385427e-38
4.3142915 0.060937129 0.906084 2.1108839e-38
4.1126018 0.15640953 0.92718363 2.1477263e-38
4.158154 0.13348331 0.92439473 2.1293232e-38
4.1672063 0.14136603 0.93382454 2.1385426e-38
4.2246084 0.11774311 0.92917138 2.1385067e-38
4.2469759 0.1329622 0.94713193 2.1477264e-38
4.1122484 0.18110277 0.94201481 2.1477623e-38
4.142808 0.14658013 0.91511595 2.1293232e-38
4.1666641 0.16030824 0.9384169 2.1477263e-38
4.0644135 0.22309209 0.9392823 2.1477623e-38
4.1053534 0.20047641 0.9317553 2.1477262e-38
4.1371379 0.17891404 0.91894603 2.129323e-38
4.0208583 0.26629081 0.92906451 2.1569459e-38
4.0621395 0.25365826 0.94023263 2.1569459e-38
4.0912933 0.13010587 0.86897993 2.0924089e-38
3.9915416 0.28745487 0.92008483 2.1570173e-38
4.0212612 0.28810355 0.92887926 2.1569457e-38
4.0453787 0.30128014 0.94119745 2.1569817e-38
4.085885 0.29530436 0.95648587 2.1569817e-38
3.9460545 0.35871911 0.92357129 2.1662374e-38
3.9781644 0.33486292 0.92370206 2.1662013e-38
4.0217867 0.32155597 0.93462282 2.1661653e-38
4.0575337 0.32457042 0.94421273 2.1661654e-38
4.0865474 0.32642537 0.95649517 2.1753848e-38
3.9077258 0.38866174 0.92914051 2.1938241e-38
3.932425 0.37644383 0.92285031 2.175421e-38
3.9740744 0.36945194 0.939906 2.175421e-38
4.0170693 0.36594734 0.95071226 2.1846404e-38
3.8784554 0.42162773 0.94020921 2.1938961e-38
3.8897066 0.42246237 0.92924851 2.1846766e-38
3.9294252 0.40683964 0.94000721 2.19386e-38
3.9740036 0.40634236 0.95523888 2.2031154e-38
3.8374507 0.47323129 0.93901372 2.2031156e-38
3.8470495 0.46935388 0.93741745 2.2030797e-38
3.8881202 0.45571169 0.93317509 2.1938601e-38
3.9264579 0.44619355 0.95861673 2.1939322e-38
3.7570636 0.50778604 0.93493092 2.2215187e-38
3.7956388 0.50311935 0.9386552 2.2123351e-38
3.8114834 0.49001071 0.92351276 2.2030797e-38
3.8495216 0.47336859 0.91601771 2.1938601e-38
3.8904686 0.48631316 0.95185626 2.2122994e-38
3.7578878 0.53735393 0.94048691 2.2215548e-38
3.7994099 0.53483874 0.9350158 2.2215188e-38
3.8058321 0.53883594 0.94062668 2.2215188e-38
3.7599561 0.57649738 0.93612063 2.2215548e-38
3.7832661 0.5668872 0.9303751 2.2215188e-38
3.8053563 0.5639261 0.94911802 2.2307384e-38
3.6775799 0.63836819 0.93394959 2.2399938e-38
3.7136858 0.61960632 0.93561924 2.2307744e-38
3.7406814 0.59909886 0.92523724 2.2215547e-38
3.7715952 0.60565186 0.94693732 2.2307742e-38
3.63873 0.65946537 0.93492168 2.239994e-38
3.6735797 0.66119921 0.93856591 2.239994e-38
3.7003295 0.64951056 0.92939043 2.2307744e-38
3.7495046 0.62660486 0.91750771 2.2215547e-38
3.5986879 0.71393687 0.92750275 2.2399579e-38
3.6159403 0.70565665 0.93107975 2.2399221e-38
3.6585763 0.69062716 0.93786645 2.2307385e-38
3.6968453 0.6697188 0.92520452 2.2215548e-38
3.5590923 0.75226283 0.93542981 2.2399581e-38
3.5740838 0.74811965 0.93447345 2.2307744e-38
3.6117892 0.72351301 0.92913139 2.2307384e-38
3.6441319 0.72846693 0.95607644 2.2399579e-38
3.5703149 0.77738088 0.93430108 2.2399579e-38
3.6176515 0.73918098 0.91516161 2.2215188e-38
3.5590808 0.8196317 0.93730819 2.2307384e-38
3.5709739 0.8130604 0.93199313 2.2215188e-38
3.6121747 0.83489561 0.95656401 2.2398861e-38
3.5592618 0.85359859 0.92824352 2.2399216e-38
3.5708659 0.84745443 0.92782128 2.2214828e-38
3.6121309 0.8425619 0.93282568 2.2215187e-38
3.5970142 0.88959813 0.93721652 2.0922294e-38
3.6103244 0.87591767 0.92923409 2.0830457e-38
3.6442955 0.91156554 0.94684321 2.0737899e-38
3.6490369 0.82671857 0.89646518 2.0369476e-38
3.6656675 0.91594446 0.93166423 2.0553868e-38
3.6995637 0.93853259 0.93323243 2.0645703e-38
3.7221658 0.95460504 0.93571305 2.0645703e-38
3.6809337 0.90688413 0.91518116 2.0369116e-38
3.7155435 0.97373873 0.93140382 2.0553149e-38
3.7298176 0.97388577 0.93406218 2.0553149e-38
3.7635357 0.99242854 0.94077492 2.055315e-38
3.7175109 1.0245823 0.93536842 2.0368757e-38
3.7331283 1.0051466 0.92855138 2.0276921e-38
3.7732556 1.0089695 0.93103588 2.0368757e-38
3.7518985 1.0635827 0.94400841 2.0276562e-38
3.776567 1.0409775 0.92387515 2.0184006e-38
3.7569668 1.0930291 0.93910766 2.0092529e-38
3.7944164 1.0989852 0.94175142 2.0092171e-38
3.8140023 1.0893397 0.93026447 1.9999975e-38
3.8473737 1.1166396 0.93678343 1.9999976e-38
3.8385775 1.136215 0.93682945 2.0091809e-38
3.8454449 1.1390934 0.93396097 1.9999615e-38
3.8936939 1.1457299 0.93426168 1.9999256e-38
3.8654361 1.1724122 0.94553173 1.9999613e-38
3.8917358 1.1717669 0.9327755 1.990706e-38
3.9334359 1.1919577 0.94144851 1.9999255e-38
3.8967011 1.2026386 0.94987196 1.9999255e-38
3.9337311 1.2084188 0.93433684 1.9907059e-38
3.972832 1.2321421 0.93272293 1.9907419e-38
3.9398646 1.2234445 0.93706107 1.9723026e-38
3.9760563 1.2615712 0.94016659 1.9815222e-38
4.0236969 1.2687633 0.93370634 1.9815223e-38
4.0412726 1.2751545 0.93230212 1.9815222e-38
3.9780998 1.2611945 0.92717505 1.9446081e-38
4.0231657 1.299116 0.94164622 1.9630832e-38
4.0635471 1.3066653 0.93437552 1.9538637e-38
4.0867815 1.3063936 0.94066036 1.9722666e-38
4.0279627 1.30829 0.94175792 1.9537918e-38
4.0666876 1.3332953 0.93778676 1.9538278e-38
4.0868707 1.3406082 0.93880028 1.9538278e-38
4.1321583 1.3539953 0.93535602 1.9721945e-38
4.0679836 1.3790275 0.93864733 1.9353526e-38
4.1138463 1.3537159 0.93130261 1.9261691e-38
4.1292267 1.3829261 0.93992287 1.9445724e-38
4.1626968 1.3872585 0.93591762 1.9538276e-38
4.0210004 1.4215086 0.93639618 1.8891831e-38
4.0681992 1.4198855 0.93808895 1.8984385e-38
4.1157894 1.4103639 0.93770766 1.9169135e-38
4.1348572 1.3691365 0.91872555 1.90773e-38
4.1645455 1.4332078 0.9285773 1.9077298e-38
4.0257463 1.4513822 0.93187249 1.8070711e-38
4.0681982 1.4569739 0.9364385 1.7880561e-38
4.1171441 1.4351455 0.92977118 1.8434093e-38
4.1348634 1.4360245 0.92894602 1.8800353e-38
4.1679201 1.4567058 0.93086118 1.8800354e-38
4.2133918 1.4677163 0.9345631 1.8800354e-38
4.0689278 1.4987698 0.93462682 7.7404855e-39
4.1169143 1.4856308 0.93246871 1.0126426e-38
4.1324697 1.5010468 0.94027835 1.3541613e-38
4.1684017 1.4939855 0.93876857 1.704612e-38
4.2191606 1.4951943 0.93917865 1.8799993e-38
4.2400084 1.484697 0.92503631 1.8708521e-38
4.0222435 1.5412078 0.94165981 7.8319566e-39
4.0679979 1.5518155 0.93848854 8.0163479e-39
4.1170063 1.5229528 0.93168604 7.7394008e-39
4.1324725 1.5153096 0.93003005 7.7397624e-39
4.1656795 1.5374047 0.9433338 7.8319636e-39
4.2143421 1.5394909 0.94746387 9.5750486e-39
4.0217271 1.5657752 0.93400556 7.185518e-39
4.0673685 1.5745337 0.94057852 7.0029162e-39
4.1164937 1.5471857 0.92833161 7.4631727e-39
4.131875 1.5818026 0.94092375 7.8315951e-39
4.1671772 1.5704204 0.94522637 7.6468451e-39
4.0692749 1.6003085 0.94873768 8.1074729e-39
4.1144843 1.6096891 0.93933868 7.4628182e-39
4.1474113 1.5049844 0.89675105 7.4628126e-39
4.1654463 1.6296763 0.94002026 7.5550138e-39
4.1335988 1.6523108 0.92037666 7.4620937e-39
4.1833529 1.6455251 0.94027311 7.4628182e-39
4.2218828 1.6602726 0.94135994 7.462814e-39
4.2663751 1.673444 0.94875425 7.6472108e-39
4.2255836 1.6921799 0.94471371 7.4621049e-39
4.2662959 1.6947749 0.95338303 7.5535676e-39
4.3030739 1.7079029 0.95321977 7.5542865e-39
4.3262205 1.7175388 0.95344085 7.5524887e-39
4.3215365 -0.17558171 0.98924124 5.435236e-39
4.3708043 -0.17029385 0.97557122 5.6203349e-39
4.4821625 -0.16455872 0.99323833 5.7143144e-39
4.5372796 -0.16673046 0.97172093 1.151078e-38
4.5972705 -0.16862033 0.96710229 2.2954152e-38
4.3074889 -0.14736053 0.98455179 5.2540803e-39
4.3444381 -0.13897377 0.99160504 5.7132494e-39
4.3799877 -0.13742152 0.98158568 6.264977e-39
4.4213781 -0.13465278 0.98651695 6.6330267e-39
4.4798741 -0.15394543 0.96012962 1.0319748e-38
4.4868727 -0.13440087 0.98479015 1.0780007e-38
4.5391846 -0.13537961 0.98382628 1.3910704e-38
4.5764995 -0.15228412 0.96539736 2.0547011e-38
4.6013465 -0.15077642 0.97127521 1.6857402e-38
4.3550539 -0.169202 0.92746198 5.8058094e-39
4.3975353 -0.089387678 0.9801259 7.4635286e-39
4.4232082 -0.10574455 0.97339356 6.5419254e-39
4.4806523 -0.12119717 0.96671706 1.419306e-38
4.4831619 -0.10856535 0.98285574 1.437745e-38
4.5391865 -0.11478797 0.98873866 1.6958571e-38
4.314477 -0.054338541 0.98077494 9.3034629e-39
4.3541675 -0.093719594 0.952048 9.0276005e-39
4.3713832 -0.078171313 0.97628671 5.5274358e-39
4.4205151 -0.077752136 0.97588092 8.4758911e-39
4.4793525 -0.079999253 0.97588104 1.3361869e-38
4.2617459 -0.015543208 0.97882462 2.1566922e-38
4.3133068 -0.025948236 0.97908348 2.0270777e-38
4.3651848 -0.074522614 0.94615269 1.9901273e-38
4.2109857 0.034904361 0.99674398 2.1384348e-38
4.2620301 0.021744501 0.97660846 2.1292872e-38
4.3057332 -0.01574906 0.95777911 2.1016645e-38
4.3435607 0.0040140599 0.99408203 2.1200676e-38
4.1884685 0.065216035 0.99558443 2.1477623e-38
4.2138915 0.056341894 0.98822641 2.1385067e-38
4.2619357 0.059194297 0.97341722 2.1385426e-38
4.3009572 0.015684217 0.94814521 2.1108839e-38
4.157763 0.11149495 0.98708624 2.1569817e-38
4.1747079 0.10973953 0.98808002 2.1477623e-38
4.214251 0.096822634 0.98148358 2.1477263e-38
4.2619395 0.092396721 0.97393376 2.1477263e-38
4.2959642 0.061961982 0.95316136 2.1292872e-38
4.1589904 0.13184667 0.96766871 2.1385427e-38
4.1713991 0.13983852 0.96951175 2.1385426e-38
4.2143402 0.12535585 0.97673076 2.1385426e-38
4.2553492 0.13389884 0.97404999 2.1477263e-38
4.2918353 0.13245898 0.9876858 2.1293589e-38
4.0646973 0.1863879 0.98690277 2.1661297e-38
4.112339 0.18233734 0.98203224 2.1569817e-38
4.1339078 0.17663305 0.95444238 2.1293232e-38
4.1694608 0.17278136 0.9734562 2.1477263e-38
4.2113614 0.16221617 0.99263191 2.1569459e-38
4.0644188 0.22091363 0.97612143 2.1569459e-38
4.0961733 0.21805397 0.97231472 2.1477622e-38
4.1126261 0.19568227 0.89612323 2.0740058e-38
4.0185189 0.27501881 0.99646032 2.1661656e-38
4.0644999 0.26310006 0.97727597 2.1569819e-38
4.0754356 0.28482386 0.94344252 2.1293232e-38
3.9723184 0.31628209 0.99994814 2.1753853e-38
4.028244 0.31145424 0.95415431 2.1477263e-38
4.0641637 0.30147901 0.9798643 2.1661654e-38
4.0755363 0.3145501 0.94911224 2.1385067e-38
3.9269083 0.35549533 0.98919505 2.1846406e-38
3.9710221 0.34103507 0.99713773 2.1754569e-38
4.0217495 0.34549075 0.97218627 2.1662014e-38
4.062727 0.3306863 0.97937208 2.1662013e-38
4.0808196 0.33231783 0.9598729 2.1477622e-38
3.9193225 0.38728943 0.98773533 2.2030793e-38
3.9406273 0.36561465 0.97032857 2.175421e-38
3.9769287 0.37760794 0.97676063 2.1846404e-38
4.0208325 0.36879793 0.97719646 2.1846045e-38
4.0421748 0.3709563 0.97988945 2.1846045e-38
3.8772116 0.42345339 0.97763968 2.2030797e-38
3.8907809 0.41727999 0.97313952 2.1938601e-38
3.9344761 0.40274325 0.9752934 2.19386e-38
3.9739034 0.40670657 0.98544908 2.19386e-38
3.8382859 0.46566498 0.97794104 2.2122991e-38
3.8567104 0.45210105 0.96843278 2.2030797e-38
3.8888264 0.44791466 0.97409981 2.2030797e-38
3.7578022 0.51140493 0.96003449 2.2491771e-38
3.7975454 0.51656121 0.98292512 2.2215547e-38
3.8264246 0.49929288 0.97388738 2.2123351e-38
3.8508883 0.49035475 0.97312301 2.2123351e-38
3.8863788 0.48720089 0.9871977 2.2214828e-38
3.7572393 0.54623061 0.9848175 2.2307742e-38
3.7906075 0.53647238 0.98028415 2.2215548e-38
3.8165326 0.52138543 0.96999365 2.2123353e-38
3.8462842 0.52634108 0.99026364 2.2215547e-38
3.6759257 0.59713697 0.98137879 2.2491418e-38
3.7171893 0.58866709 0.98411041 2.2399579e-38
3.7520747 0.57430822 0.97290051 2.2307744e-38
3.7776022 0.56469804 0.96883273 2.2307384e-38
3.8202567 0.55138838 0.96687776 2.2215188e-38
3.6775732 0.62533945 0.97574323 2.2399938e-38
3.7037363 0.61912411 0.97513515 2.2307744e-38
3.7304504 0.58665061 0.96026134 2.2215547e-38
3.7703207 0.61129838 0.97713482 2.2307744e-38
3.6381342 0.6639117 0.99095583 2.2491776e-38
3.6621811 0.6668762 0.97543579 2.2307744e-38
3.6987379 0.65037298 0.97141695 2.2307744e-38
3.7296927 0.62383425 0.95489162 2.2215548e-38
3.7706771 0.64234388 0.97912967 2.2491415e-38
3.5998392 0.7110998 0.97169149 2.2307742e-38
3.6302135 0.7061609 0.98168939 2.2399579e-38
3.6601806 0.69892645 0.97925025 2.2399579e-38
3.6896994 0.68549848 0.96753508 2.2307384e-38
3.7338834 0.57324618 0.907628 2.1846407e-38
3.5592711 0.75321919 0.96423024 2.2308824e-38
3.5826678 0.75036132 0.96447676 2.2399581e-38
3.6093132 0.7403242 0.97039986 2.2307744e-38
3.6508255 0.72624332 0.97785991 2.2307384e-38
3.6854832 0.72416937 0.99168783 2.2399579e-38
3.496799 0.79026073 0.99861324 2.2399579e-38
3.5318413 0.78966945 0.98717082 2.2399581e-38
3.5697653 0.78023636 0.96917462 2.2399579e-38
3.606761 0.76847851 0.98435152 2.239994e-38
3.5477757 0.81358773 0.98445904 2.2399581e-38
3.5675426 0.82095766 0.97271079 2.2399221e-38
3.6100128 0.82088727 0.9761343 2.2399221e-38
3.5592449 0.85444605 0.98732144 2.2306665e-38
3.5714982 0.85134691 0.97384745 2.2306665e-38
3.605459 0.86660963 0.96963042 2.2307384e-38
3.5982158 0.89312965 0.9747858 2.1014848e-38
3.6071324 0.89633352 0.97123986 2.101449e-38
3.6471767 0.91204065 0.97688252 2.073826e-38
3.6820276 0.91664094 0.96997613 2.0737901e-38
3.5991881 0.92317373 0.97419113 2.0554586e-38
3.629051 0.92819256 0.9556089 2.0461672e-38
3.6539035 0.93310928 0.97862726 2.07379e-38
3.6893978 0.94704592 0.97330141 2.0646065e-38
3.7229471 0.95150739 0.97087795 2.0646063e-38
3.6362944 0.96147984 0.99879664 2.0737543e-38
3.6779718 0.95965719 0.96475542 2.0553507e-38
3.7060208 0.97290367 0.97390074 2.0645344e-38
3.7234621 0.9835369 0.97978657 2.0645704e-38
3.766906 0.99387395 0.96053016 2.0645343e-38
3.7175381 1.0157939 0.97754121 2.0553149e-38
3.7291696 1.0007981 0.96974915 2.0460953e-38
3.7658384 0.99547446 0.95377731 2.0368756e-38
3.7574949 1.0574642 0.98010093 2.0368757e-38
3.765897 1.0375524 0.97042054 2.0276562e-38
3.8036487 1.0737383 0.9963969 2.0369115e-38
3.7583127 1.0929649 0.97424686 2.0184725e-38
3.7968054 1.0975511 0.9825713 2.0276203e-38
3.8171308 1.0835845 0.97352302 2.0184366e-38
3.843852 1.1142727 0.99433792 2.0184366e-38
3.7989993 1.1204582 0.98019981 2.0184363e-38
3.8322246 1.1319698 0.97866541 2.0184005e-38
3.8484521 1.1342964 0.97483438 2.0092169e-38
3.9009733 1.1348822 0.96341956 2.0091809e-38
3.8386235 1.1608512 0.96561182 2.0184005e-38
3.8521681 1.1664792 0.9762032 2.009181e-38
3.8929615 1.1725012 0.97285748 1.9999973e-38
3.9451573 1.1948547 0.97259098 1.9999256e-38
3.8904679 1.2049724 0.97943074 1.9999255e-38
3.9428668 1.2079353 0.96997237 1.9907059e-38
3.9728243 1.232201 0.96993285 1.9999255e-38
3.9474368 1.2312956 0.96523219 1.9723028e-38
3.9795332 1.2562367 0.97514403 1.9814865e-38
4.0172625 1.264856 0.97099781 1.9815584e-38
3.9802179 1.290566 0.97419518 1.9630473e-38
4.021482 1.3076272 0.97042304 1.9630831e-38
4.0402627 1.3050876 0.9607051 1.9814503e-38
3.9922009 1.320763 0.99069113 1.9446801e-38
4.0278893 1.3152413 0.9634738 1.9446082e-38
4.0663886 1.3504094 0.97616696 1.9446081e-38
4.0512252 1.2859538 0.89937031 1.9169854e-38
4.0678067 1.371664 0.97708124 1.9261331e-38
4.1010041 1.3750757 0.97008395 1.9353525e-38
4.1314597 1.3869135 0.97466165 1.9353526e-38
4.0679226 1.4243721 0.97144884 1.8892548e-38
4.1152596 1.4142262 0.97887152 1.9169134e-38
4.1273165 1.3719902 0.9460206 1.8984743e-38
4.1656513 1.4298723 0.9943549 1.9260971e-38
3.9728456 1.4576374 0.9982239 7.6464835e-39
4.0683002 1.4551296 0.97837698 1.8064234e-38
4.1145906 1.4664598 0.97927272 1.8618845e-38
4.1200829 1.4513762 0.95305294 1.8615961e-38
4.1670995 1.458704 0.99083942 1.889255e-38
4.2132921 1.4678574 0.98453832 1.9076941e-38
4.0233188 1.5081244 0.98951876 7.6457605e-39
4.0687771 1.4993503 0.99101484 7.7397666e-39
4.1152411 1.4994762 0.98021048 1.0955126e-38
4.1327605 1.4566739 0.95039457 1.4924919e-38
4.1687512 1.4998161 0.98421901 1.612238e-38
4.2146559 1.4923017 0.98346007 1.8800714e-38
4.2644324 1.5127363 0.98318976 1.8891824e-38
4.0016885 1.3088599 0.83410662 7.8305147e-39
4.0224342 1.4721477 0.92450184 7.9245096e-39
4.067811 1.5445216 0.98007292 8.0152689e-39
4.1137586 1.5409468 0.9750213 7.8308748e-39
4.1445861 1.4717031 0.93219453 7.7394036e-39
4.1674237 1.5375209 0.98371339 7.8316035e-39
4.2150006 1.5439126 0.98614639 8.6574181e-39
4.2612243 1.5344753 0.98961151 1.8254742e-38
3.9775667 1.5735642 0.98516262 7.6472066e-39
4.0259395 1.5087945 0.9300375 7.5542893e-39
4.0677385 1.5785965 0.97937119 7.2780612e-39
4.1032438 1.571997 0.96456796 7.5557285e-39
4.140389 1.5556966 0.97477037 7.9237907e-39
4.1712565 1.5722246 0.97996974 7.7386806e-39
4.2168465 1.581503 0.98296088 7.6472052e-39
4.2400403 1.565359 0.98945963 7.9237991e-39
3.9747305 1.607291 0.98365557 6.5397646e-39
4.0212636 1.6151587 0.99109375 7.1855026e-39
4.0687847 1.6053966 0.9852888 7.6475653e-39
4.1086473 1.6104101 0.97643101 7.3699009e-39
4.1325364 1.59031 0.96235013 7.2787842e-39
4.1659622 1.6264085 0.98158216 7.3709799e-39
4.2256312 1.6196498 0.98832977 7.4631741e-39
4.2665043 1.6152171 0.99159658 7.8319566e-39
4.1138067 1.6500387 0.98723614 7.3717155e-39
4.1361127 1.6568006 0.99426758 7.4624566e-39
4.1797743 1.6474111 0.98006046 7.2787856e-39
4.2209625 1.6614298 0.98417914 7.5550124e-39
4.2667432 1.6791393 0.98550916 7.923439e-39
4.2348061 1.6941328 0.9744637 7.552839e-39
4.2661405 1.6952578 0.97960562 7.4617308e-39
4.3093443 1.7126223 0.98094004 7.5535662e-39
4.3221307 1.7162297 0.98299325 7.5532033e-39
4.2656574 1.7278578 0.99106264 6.7177141e-39
4.3128548 1.734745 0.98082846 7.0954804e-39
4.3398914 1.7396768 0.9921459 7.3702554e-39
4.3731699 1.7430047 0.99644691 7.4620909e-39
4.3187079 1.7661065 0.97065592 6.9132205e-39
4.3818316 1.7683506 0.99692804 6.8134663e-39
4.2921376 -0.16108254 1.0121639 5.8976378e-39
4.373364 -0.16508164 1.0179579 5.7128907e-39
4.4232121 -0.16296841 1.0225112 5.9898251e-39
4.4785867 -0.1648009 1.0101026 6.0820165e-39
4.6039424 -0.16841568 1.0370554 5.8061625e-39
4.3077774 -0.14373173 1.0271506 5.0704065e-39
4.3445511 -0.13968088 1.0233462 5.5292211e-39
4.3738594 -0.13608876 1.0211203 5.5292197e-39
4.4236445 -0.13836306 1.0187374 5.7125319e-39
4.4673882 -0.16094123 0.99595982 5.7118088e-39
4.4881239 -0.15017867 1.0034386 5.6199734e-39
4.5398216 -0.14767775 1.0151443 5.3448284e-39
4.5880642 -0.15094087 1.0186332 5.1589938e-39
4.6019611 -0.15110835 1.0284463 5.0686058e-39
4.3158426 -0.094265193 1.0215228 3.8675319e-39
4.3293567 -0.090627052 0.97146302 5.437024e-39
4.3794074 -0.097660832 1.0263367 3.8686109e-39
4.4220972 -0.10301498 1.0229939 4.2377564e-39
4.4651237 -0.13527794 0.99604601 4.8820454e-39
4.4820571 -0.12991115 1.0018668 4.9742424e-39
4.5435786 -0.11416793 1.0229827 5.4326968e-39
4.3148017 -0.05866234 1.0202825 8.3822297e-39
4.3348951 -0.063713491 1.0001771 8.475147e-39
4.3677359 -0.078049704 1.0144465 5.6214167e-39
4.4221706 -0.079380393 1.016032 5.7143326e-39
4.2618294 -0.014830439 1.0184109 2.1843149e-38
4.3101277 -0.022390341 1.0165493 2.0178219e-38
4.3350062 -0.028478403 1.0032988 2.0086382e-38
4.1993814 0.04669603 0.96602309 2.0924449e-38
4.2620277 0.020107588 1.0167749 2.1476904e-38
4.2930093 0.01119834 0.99847913 2.1200677e-38
4.3439302 0.0056707878 1.0191371 2.1385067e-38
4.1580596 0.065015309 1.0005827 2.1660937e-38
4.2155161 0.065580443 1.0148231 2.1385427e-38
4.2601552 0.052373823 1.0175664 2.1385426e-38
4.2968411 0.012543475 0.98740113 2.1200676e-38
4.157999 0.10760272 1.0208236 2.1569817e-38
4.1625032 0.10887866 1.0066376 2.1477622e-38
4.2161846 0.099109724 1.0135701 2.1477263e-38
4.2533841 0.091921404 1.0143342 2.1477622e-38
4.2969937 0.041204341 0.97724968 2.1201036e-38
4.1124301 0.15158696 1.0280062 2.1569819e-38
4.1563511 0.14260197 1.0169653 2.1477982e-38
4.1649227 0.1420453 1.0113596 2.1477623e-38
4.2184629 0.13620029 1.0052484 2.1385786e-38
4.2412968 0.13536695 1.0192895 2.147798e-38
4.064527 0.18621758 1.0153871 2.1569819e-38
4.1116872 0.17918082 1.0182297 2.1569819e-38
4.1438804 0.1641099 0.99809927 2.1385427e-38
4.1660223 0.16125147 0.99675077 2.1385427e-38
4.2096057 0.1623082 1.0125995 2.1569459e-38
4.0643744 0.21897241 1.0192426 2.1569819e-38
4.1148839 0.20478515 1.0042049 2.1477623e-38
4.1340122 0.19735946 0.98972273 2.1293592e-38
4.0204773 0.27516836 1.021458 2.1661654e-38
4.0642357 0.26115337 1.0224439 2.1569819e-38
4.105341 0.22963218 0.98016334 2.1293232e-38
4.1383944 0.26064456 1.0151238 2.1569817e-38
3.9191921 0.31314367 1.0323912 2.1846047e-38
3.9273245 0.31271717 1.0332932 2.1937522e-38
3.9727373 0.31625611 1.0259726 2.1846045e-38
4.0214124 0.29740828 1.0180172 2.1662014e-38
4.0631747 0.30027339 1.0187354 2.1661654e-38
4.0961814 0.26519185 0.9727633 2.1293232e-38
3.9191461 0.34660703 1.0211811 2.1938241e-38
3.9283764 0.34910709 1.0217422 2.1938241e-38
3.9767587 0.33224356 1.013371 2.1846045e-38
4.0365629 0.3098321 1.0019151 2.1662014e-38
4.0600715 0.32933465 1.0101911 2.1662373e-38
4.0822191 0.30930063 0.98220617 2.1477623e-38
3.8793883 0.39665881 1.0217185 2.2031157e-38
3.8897774 0.39592469 1.024873 2.2030797e-38
3.9306872 0.37318808 1.0142521 2.1938601e-38
3.981986 0.360311 0.99690163 2.1846406e-38
4.0750494 0.34665334 0.97798359 2.1569819e-38
4.0412774 0.3742615 1.0068895 2.1846404e-38
3.8786609 0.42189837 1.013979 2.2030797e-38
3.8938062 0.40529087 1.0064354 2.1938601e-38
3.9309745 0.4023684 1.0112734 2.2030797e-38
3.7958605 0.47367772 1.0278805 2.2123354e-38
3.8377984 0.47390661 1.0325928 2.2122994e-38
3.850656 0.46967757 1.0288677 2.2122994e-38
3.8905437 0.44492292 1.0147431 2.2030797e-38
3.7970691 0.51440686 1.0193774 2.2215547e-38
3.8259873 0.50671434 1.0246223 2.2215188e-38
3.8500414 0.49497855 1.0173608 2.2122992e-38
3.8945589 0.4735826 1.0060463 2.2122991e-38
3.7570603 0.551157 1.0164188 2.2307744e-38
3.7838886 0.54995251 1.0103302 2.221519e-38
3.8089786 0.53501892 1.0141706 2.2215188e-38
3.8488746 0.50837713 1.0044621 2.2030797e-38
3.7169583 0.58952552 1.0113536 2.2399579e-38
3.7527277 0.58148724 1.0137737 2.2307384e-38
3.7644825 0.58496052 1.0082781 2.221519e-38
3.8027377 0.56063396 1.0210973 2.2307742e-38
3.6774416 0.63466865 1.0096896 2.2399579e-38
3.7147799 0.61696595 1.0161222 2.2307744e-38
3.7278781 0.62175733 1.0083739 2.2215548e-38
3.772332 0.62578595 1.0249929 2.2399579e-38
3.598294 0.67787325 1.0292854 2.2399941e-38
3.6184409 0.67552477 1.0259807 2.2399941e-38
3.6638687 0.66546279 1.0143034 2.2399581e-38
3.7008944 0.65428025 1.0180972 2.2399579e-38
3.7219155 0.65233171 1.0158265 2.2307744e-38
3.7734079 0.64274299 1.0268614 2.239994e-38
3.5987892 0.70797378 1.0210993 2.2399579e-38
3.6148062 0.70246738 1.0236213 2.2399581e-38
3.6535962 0.69645238 1.0135946 2.2399581e-38
3.6871953 0.69646394 1.003583 2.2307744e-38
3.7250698 0.70445883 1.0289729 2.2491776e-38
3.5931191 0.73500901 1.0083801 2.2307385e-38
3.6080749 0.72989655 1.0097666 2.2399221e-38
3.6531379 0.72954774 1.0150847 2.2399579e-38
3.6887844 0.72663075 1.0115055 2.2399581e-38
3.7308784 0.72507256 1.0206989 2.2399578e-38
3.4983482 0.78821659 1.0131695 2.2399579e-38
3.5333574 0.77935004 1.0111223 2.2399579e-38
3.5710747 0.76900476 1.0089996 2.2307745e-38
3.6059089 0.76529551 1.0134894 2.2399581e-38
3.6510966 0.7604655 1.0325955 2.2399581e-38
3.4976125 0.80372322 1.0169499 2.2399579e-38
3.5323956 0.82094258 1.0209131 2.2399581e-38
3.5732434 0.80927306 0.99816525 2.2307385e-38
3.5524523 0.85093528 1.0243098 2.2398861e-38
3.5693877 0.85454756 1.0153741 2.2306665e-38
3.6230919 0.84333932 0.99117994 2.2214469e-38
3.5902622 0.89067692 1.0199199 2.101449e-38
3.6095047 0.88748515 1.0098919 2.1014848e-38
3.6394355 0.90045989 1.010301 2.0645707e-38
3.5988557 0.92425501 1.0187747 2.0921568e-38
3.6259294 0.91100872 0.99746346 2.0645703e-38
3.6493275 0.93813568 1.0206871 2.0737899e-38
3.6827822 0.95715076 1.0170209 2.0737899e-38
3.7317038 0.94624043 1.00121 2.0831172e-38
3.6385376 0.96133494 1.01972 2.0645706e-38
3.6661544 0.96567476 1.0187758 2.0645346e-38
3.7008517 0.9827646 1.0180218 2.0645704e-38
3.7247317 0.98719412 1.0080419 2.0553509e-38
3.6788149 1.0005382 1.008651 2.0645706e-38
3.7169414 1.0177491 1.0202048 2.0553509e-38
3.7287316 1.0187572 1.0060507 2.0461313e-38
3.7626262 1.0320277 1.0062644 2.0553149e-38
3.7576873 1.0596453 1.0183845 2.0460953e-38
3.7646298 1.0621248 1.0128957 2.0368757e-38
3.8033834 1.105592 0.95158726 1.9815582e-38
3.7572544 1.0941042 1.029038 2.0368396e-38
3.7911558 1.099547 1.0173615 2.0368397e-38
3.8104815 1.0932487 1.0076671 2.0276202e-38
3.8453205 1.1031071 1.0127602 2.0276203e-38
3.8841202 1.1162802 1.0060661 2.0368399e-38
3.7981114 1.1202464 1.0270568 2.0276563e-38
3.8278854 1.136125 0.99550605 1.9999976e-38
3.8530047 1.1227735 1.01592 2.0184007e-38
3.889981 1.1424781 1.0127178 2.0184006e-38
3.8383241 1.1613579 1.0241786 2.0092168e-38
3.8675416 1.186922 0.98774475 1.9815223e-38
3.8917484 1.1653261 1.0142403 1.9999975e-38
3.9250619 1.1864816 1.0194021 2.009181e-38
3.8790927 1.2187767 1.0351146 1.9998896e-38
3.9028678 1.1562428 0.99301624 1.9815223e-38
3.9298007 1.22622 1.0160229 1.9999256e-38
3.9447708 1.2174267 1.0085541 1.9907059e-38
3.9833744 1.2504495 1.0109905 1.9815223e-38
4.0192113 1.2772419 1.0197136 1.9815225e-38
4.0154953 1.1996169 0.96533138 1.9446084e-38
4.0218301 1.301657 1.0208664 1.9722671e-38
4.0519104 1.2994156 1.029285 1.9723389e-38
3.9921374 1.3208185 1.0094084 1.9538637e-38
4.032743 1.2978677 1.0038812 1.9446084e-38
4.066401 1.350221 1.0246279 1.9446081e-38
4.0881872 1.3521962 1.0032136 1.9538998e-38
4.0677266 1.3734162 1.020239 1.9261331e-38
4.1147985 1.3371336 0.99313527 1.9169494e-38
4.1284738 1.3894563 1.0190396 1.9353525e-38
4.0669107 1.4124553 1.0204512 1.8984385e-38
4.1151447 1.4162647 1.0200951 1.9076581e-38
4.1390748 1.3834831 1.0002254 1.8985104e-38
4.165349 1.4323556 1.0211911 1.907694e-38
3.9932842 1.4722538 1.0246884 7.5528502e-39
4.0186844 1.4719961 1.0191448 8.4758827e-39
4.0666661 1.4704421 1.0278587 1.4839548e-38
4.115037 1.4643977 1.0192186 1.8617764e-38
4.1485009 1.4183705 0.99449676 1.8615603e-38
4.1681981 1.4588246 1.0200783 1.8892188e-38
4.2167296 1.4669617 1.0196863 1.9076219e-38
3.9732265 1.493513 1.0286534 7.7383204e-39
4.0237808 1.5014709 1.0193192 7.8305133e-39
4.0671968 1.5003452 1.0306476 7.9234278e-39
